ncols         457
nrows         41
xllcorner     116.508646908
yllcorner     26.5633058699
cellsize      0.002015441643
NODATA_value  -9999
-9999 -9999 -9999 -9999 -9999 -9999 -9999 -9999 -9999 -9999 -9999 -9999 -9999 -9999 -9999 -9999 -9999 -9999 -9999 -9999 -9999 -9999 -9999 -9999 -9999 -9999 -9999 -9999 822 680 673 673 708 754 822 792 792 772 835 762 687 687 686 634 649 630 630 661 682 653 671 671 662 650 673 673 671 673 635 571 571 513 488 488 532 532 548 570 565 541 541 569 552 536 558 554 555 546 546 566 566 604 636 569 559 559 539 528 563 563 539 519 497 478 478 477 458 472 477 477 439 493 464 464 464 467 471 463 465 465 486 550 574 573 573 550 592 563 530 530 562 568 532 532 505 439 417 417 428 419 439 399 387 387 374 374 374 374 374 374 374 389 387 387 406 448 496 496 519 514 547 611 611 683 744 688 632 632 675 725 645 614 614 530 574 595 615 615 606 670 684 702 702 730 748 781 832 832 837 819 852 792 876 883 918 869 869 816 725 704 710 779 800 758 772 835 835 830 835 790 751 751 770 793 826 889 889 954 977 915 915 920 963 942 925 925 874 770 692 710 710 771 850 840 876 876 812 805 822 854 854 886 998 1069 996 996 894 942 1029 1029 1199 1189 1170 1068 961 821 746 695 663 663 621 618 523 483 466 536 485 467 466 466 466 466 466 466 466 466 402 513 513 537 542 585 548 548 442 383 319 444 444 432 387 387 387 387 424 478 409 417 417 426 454 455 470 470 539 629 729 729 741 748 821 743 743 621 595 588 623 623 504 468 539 558 558 589 612 645 671 671 672 643 -9999 -9999 -9999 -9999 -9999 -9999 -9999 -9999 -9999 -9999 -9999 -9999 -9999 -9999 -9999 -9999 -9999 -9999 -9999 -9999 -9999 -9999 -9999 -9999 -9999 -9999 -9999 -9999 -9999 -9999 -9999 -9999 -9999 -9999 -9999 -9999 -9999 -9999 -9999 -9999 -9999 -9999 -9999 -9999 -9999 -9999 -9999 -9999 -9999 -9999 -9999 -9999 -9999 -9999 -9999 -9999 -9999 -9999 -9999 -9999 -9999 -9999 -9999 -9999 -9999 -9999 -9999 -9999 -9999 -9999 -9999 -9999 -9999 -9999 -9999 -9999 -9999 -9999 -9999 -9999 -9999 -9999 -9999 -9999 -9999 -9999 -9999 -9999 -9999 -9999 -9999 -9999 -9999 -9999 -9999 -9999 -9999 -9999 -9999 -9999 -9999 -9999 -9999 -9999 -9999 -9999 -9999 -9999 -9999 -9999 -9999 -9999 -9999 -9999 -9999 -9999 -9999 -9999 -9999 -9999 -9999 -9999 -9999 -9999 -9999 -9999 -9999 -9999 -9999 -9999 -9999 -9999 -9999 -9999 -9999 -9999 -9999
-9999 -9999 -9999 -9999 -9999 -9999 -9999 -9999 -9999 -9999 -9999 -9999 -9999 -9999 -9999 -9999 -9999 -9999 -9999 -9999 -9999 -9999 -9999 -9999 -9999 -9999 -9999 -9999 866 720 639 685 685 695 718 713 762 762 800 741 653 653 686 634 650 588 588 639 665 638 656 656 634 650 626 585 585 622 612 545 510 510 488 488 552 505 505 505 515 499 530 530 536 527 558 558 549 546 578 627 627 637 576 525 515 559 513 533 503 532 532 524 512 529 480 477 486 447 467 438 438 457 471 464 464 477 471 481 502 502 548 613 643 592 592 607 623 563 563 563 547 569 572 472 472 475 465 417 408 408 394 380 380 380 377 374 374 412 374 403 388 374 374 374 421 443 510 575 519 551 620 705 740 740 771 678 636 702 702 725 607 562 530 530 574 614 654 654 616 670 708 721 721 738 795 858 835 835 812 812 852 881 881 890 863 804 699 699 657 710 710 710 710 730 772 878 878 907 930 892 807 751 756 759 778 836 836 837 838 855 789 920 945 934 996 921 921 845 851 737 858 858 850 972 901 901 866 855 909 876 876 928 998 1059 953 953 894 933 1012 1146 1146 1286 1170 1068 826 826 722 671 620 586 586 561 554 483 483 560 473 536 466 466 466 466 466 466 466 530 488 584 616 616 610 628 598 490 442 368 319 433 387 387 393 387 393 393 424 470 433 409 409 416 433 457 497 497 539 639 724 825 825 772 834 737 656 656 595 588 523 473 473 496 564 554 554 620 667 645 697 697 707 718 -9999 -9999 -9999 -9999 -9999 -9999 -9999 -9999 -9999 -9999 -9999 -9999 -9999 -9999 -9999 -9999 -9999 -9999 -9999 -9999 -9999 -9999 -9999 -9999 -9999 -9999 -9999 -9999 -9999 -9999 -9999 -9999 -9999 -9999 -9999 -9999 -9999 -9999 -9999 -9999 -9999 -9999 -9999 -9999 -9999 -9999 -9999 -9999 -9999 -9999 -9999 -9999 -9999 -9999 -9999 -9999 -9999 -9999 -9999 -9999 -9999 -9999 -9999 -9999 -9999 -9999 -9999 -9999 -9999 -9999 -9999 -9999 -9999 -9999 -9999 -9999 -9999 -9999 -9999 -9999 -9999 -9999 -9999 -9999 -9999 -9999 -9999 -9999 -9999 -9999 -9999 -9999 -9999 -9999 -9999 -9999 -9999 -9999 -9999 -9999 -9999 -9999 -9999 -9999 -9999 -9999 -9999 -9999 -9999 -9999 -9999 -9999 -9999 -9999 -9999 -9999 -9999 -9999 -9999 -9999 -9999 -9999 -9999 -9999 -9999 -9999 -9999 -9999 -9999 -9999 -9999 -9999 -9999 -9999 -9999 -9999 -9999
-9999 -9999 -9999 -9999 -9999 -9999 -9999 -9999 -9999 -9999 -9999 -9999 -9999 -9999 -9999 -9999 -9999 -9999 -9999 -9999 -9999 -9999 -9999 -9999 -9999 -9999 -9999 -9999 861 791 639 613 613 642 610 638 711 711 729 676 632 620 620 609 600 557 628 628 642 578 564 634 634 607 578 521 521 525 559 555 498 498 488 511 511 507 507 497 479 532 562 562 577 527 524 524 524 577 612 618 575 575 565 525 515 509 509 503 527 503 503 482 484 484 480 480 463 438 438 455 455 473 471 471 488 477 483 497 554 596 596 667 716 631 652 607 623 630 574 574 553 522 507 448 448 435 465 422 386 386 374 378 374 374 374 374 391 412 411 411 438 453 385 427 427 491 511 575 612 612 633 808 887 887 833 717 665 722 702 638 570 541 566 566 558 621 658 671 616 635 675 731 825 825 857 849 835 816 816 812 861 900 900 880 800 717 664 664 657 710 728 736 736 800 838 904 1012 1012 956 851 807 733 733 718 692 761 805 805 775 782 789 789 853 906 1009 998 998 967 891 841 887 858 950 1007 1024 938 938 983 942 962 1014 928 1043 1051 954 894 894 894 943 1040 1040 1286 1217 1087 853 853 722 668 621 596 596 575 554 563 523 523 484 604 470 466 466 466 466 503 522 522 668 645 647 647 659 619 598 490 490 376 319 327 356 356 399 398 398 422 422 438 418 413 446 446 440 445 468 530 530 594 677 776 776 846 806 794 692 656 589 512 473 503 503 513 568 587 640 640 667 675 709 750 750 -9999 -9999 -9999 -9999 -9999 -9999 -9999 -9999 -9999 -9999 -9999 -9999 -9999 -9999 -9999 -9999 -9999 -9999 -9999 -9999 -9999 -9999 -9999 -9999 -9999 -9999 -9999 -9999 -9999 -9999 -9999 -9999 -9999 -9999 -9999 -9999 -9999 -9999 -9999 -9999 -9999 -9999 -9999 -9999 -9999 -9999 -9999 -9999 -9999 -9999 -9999 -9999 -9999 -9999 -9999 -9999 -9999 -9999 -9999 -9999 -9999 -9999 -9999 -9999 -9999 -9999 -9999 -9999 -9999 -9999 -9999 -9999 -9999 -9999 -9999 -9999 -9999 -9999 -9999 -9999 -9999 -9999 -9999 -9999 -9999 -9999 -9999 -9999 -9999 -9999 -9999 -9999 -9999 -9999 -9999 -9999 -9999 -9999 -9999 -9999 -9999 -9999 -9999 -9999 -9999 -9999 -9999 -9999 -9999 -9999 -9999 -9999 -9999 -9999 -9999 -9999 -9999 -9999 -9999 -9999 -9999 -9999 -9999 -9999 -9999 -9999 -9999 -9999 -9999 -9999 -9999 -9999 -9999 -9999 -9999 -9999 -9999 -9999
-9999 -9999 -9999 -9999 -9999 -9999 -9999 -9999 -9999 -9999 -9999 -9999 -9999 -9999 -9999 -9999 -9999 -9999 -9999 -9999 -9999 -9999 -9999 -9999 -9999 -9999 -9999 -9999 837 791 679 653 613 613 570 606 633 690 690 631 632 573 573 578 558 555 593 593 625 580 564 617 617 547 531 513 491 491 529 512 481 497 497 488 486 466 466 466 505 556 571 534 577 513 557 593 593 574 586 566 540 540 565 550 494 475 475 486 487 488 472 472 458 484 459 438 438 438 438 447 456 456 470 487 488 488 502 534 615 693 693 785 730 687 652 652 699 634 566 533 533 449 444 458 424 435 436 375 374 374 374 374 374 374 374 374 391 409 433 433 479 502 453 431 431 486 511 563 607 607 719 855 975 816 816 699 751 722 691 691 625 553 605 587 587 597 693 671 671 622 655 726 823 823 934 878 823 768 816 784 837 800 806 806 749 665 618 656 657 708 712 759 789 789 883 945 1018 1018 970 851 833 784 784 753 677 710 724 724 735 782 745 807 807 856 972 1111 1063 1063 968 841 887 1023 1023 1119 1051 1025 1025 1012 983 1000 1014 1014 1062 1063 956 894 894 898 1012 1075 1209 1209 1202 1041 854 706 706 644 616 567 512 575 594 607 568 568 529 468 507 466 466 466 466 485 603 603 699 727 712 721 721 619 602 545 440 440 337 319 332 400 400 398 398 443 471 471 421 448 430 430 451 504 468 547 547 568 662 748 834 834 861 722 692 571 571 495 473 539 545 545 543 582 640 671 -9999 -9999 -9999 805 805 -9999 -9999 -9999 -9999 -9999 -9999 -9999 -9999 -9999 -9999 -9999 -9999 -9999 -9999 -9999 -9999 -9999 -9999 -9999 -9999 -9999 -9999 -9999 -9999 -9999 -9999 -9999 -9999 -9999 -9999 -9999 -9999 -9999 -9999 -9999 -9999 -9999 -9999 -9999 -9999 -9999 -9999 -9999 -9999 -9999 -9999 -9999 -9999 -9999 -9999 -9999 -9999 -9999 -9999 -9999 -9999 -9999 -9999 -9999 -9999 -9999 -9999 -9999 -9999 -9999 -9999 -9999 -9999 -9999 -9999 -9999 -9999 -9999 -9999 -9999 -9999 -9999 -9999 -9999 -9999 -9999 -9999 -9999 -9999 -9999 -9999 -9999 -9999 -9999 -9999 -9999 -9999 -9999 -9999 -9999 -9999 -9999 -9999 -9999 -9999 -9999 -9999 -9999 -9999 -9999 -9999 -9999 -9999 -9999 -9999 -9999 -9999 -9999 -9999 -9999 -9999 -9999 -9999 -9999 -9999 -9999 -9999 -9999 -9999 -9999 -9999 -9999 -9999 -9999 -9999 -9999 -9999 -9999 -9999 -9999 -9999 -9999 -9999
-9999 -9999 -9999 -9999 -9999 -9999 -9999 -9999 -9999 -9999 -9999 -9999 -9999 -9999 -9999 -9999 -9999 -9999 -9999 -9999 -9999 -9999 -9999 -9999 -9999 -9999 865 826 837 805 689 639 595 595 531 590 577 671 690 631 572 533 559 559 603 552 539 545 545 580 532 565 537 537 508 504 495 495 485 499 481 486 486 466 461 489 507 507 553 544 571 534 534 499 576 570 548 548 564 527 545 544 544 533 487 488 475 475 464 467 473 473 458 468 438 438 438 445 448 446 456 456 470 487 507 528 528 579 639 753 853 853 713 687 703 672 672 633 566 539 539 461 436 420 424 424 386 374 374 374 374 374 392 408 381 381 397 391 402 430 430 468 492 503 496 486 547 592 630 784 784 889 960 876 876 699 751 851 757 757 656 592 633 665 665 676 693 694 642 642 727 824 878 907 907 847 823 768 760 760 822 703 742 742 673 609 612 656 656 702 754 760 862 862 919 926 996 970 970 942 925 828 749 749 675 675 675 679 735 734 723 761 761 894 955 1008 980 980 968 983 975 1051 1051 1104 1050 1090 1103 1103 1087 1000 1055 1070 1070 993 978 896 923 923 976 1075 1108 1189 1189 1055 901 722 722 640 591 567 512 512 514 540 516 466 466 466 466 466 466 466 466 485 567 634 634 759 800 732 674 674 644 502 393 393 344 319 330 356 400 398 398 422 477 477 448 494 497 477 477 504 601 591 547 547 640 746 856 784 784 722 604 540 540 488 547 576 594 594 571 582 649 -9999 -9999 -9999 -9999 -9999 -9999 -9999 -9999 -9999 -9999 -9999 -9999 -9999 -9999 -9999 -9999 -9999 -9999 -9999 -9999 -9999 -9999 -9999 -9999 -9999 -9999 -9999 -9999 -9999 -9999 -9999 -9999 -9999 -9999 -9999 -9999 -9999 -9999 -9999 -9999 -9999 -9999 -9999 -9999 -9999 -9999 -9999 -9999 -9999 -9999 -9999 -9999 -9999 -9999 -9999 -9999 -9999 -9999 -9999 -9999 -9999 -9999 -9999 -9999 -9999 -9999 -9999 -9999 -9999 -9999 -9999 -9999 -9999 -9999 -9999 -9999 -9999 -9999 -9999 -9999 -9999 -9999 -9999 -9999 -9999 -9999 -9999 -9999 -9999 -9999 -9999 -9999 -9999 -9999 -9999 -9999 -9999 -9999 -9999 -9999 -9999 -9999 -9999 -9999 -9999 -9999 -9999 -9999 -9999 -9999 -9999 -9999 -9999 -9999 -9999 -9999 -9999 -9999 -9999 -9999 -9999 -9999 -9999 -9999 -9999 -9999 -9999 -9999 -9999 -9999 -9999 -9999 -9999 -9999 -9999 -9999 -9999 -9999 -9999 -9999 -9999 -9999 -9999 -9999
-9999 -9999 -9999 -9999 -9999 -9999 -9999 -9999 -9999 -9999 -9999 -9999 -9999 -9999 -9999 -9999 -9999 -9999 -9999 -9999 -9999 -9999 -9999 -9999 -9999 -9999 865 826 810 810 737 644 610 541 541 519 548 671 599 599 562 530 530 530 530 505 505 505 545 527 530 559 510 510 499 512 492 476 476 499 502 473 461 461 461 510 539 491 491 544 547 517 499 499 542 536 517 517 511 503 545 523 523 522 514 494 510 510 469 453 453 453 453 453 456 444 438 438 461 460 448 459 459 485 532 523 523 567 668 845 898 898 713 755 716 657 657 616 549 493 482 482 443 420 417 422 422 374 374 374 386 386 374 408 417 397 397 413 399 451 451 430 503 518 496 496 550 624 731 821 821 942 1000 923 778 778 833 945 814 705 705 704 711 763 792 676 727 690 667 667 748 833 837 871 871 847 819 738 723 723 717 667 715 612 612 607 612 632 676 676 723 842 901 949 949 967 996 1022 1022 984 925 833 764 764 715 729 675 679 679 680 720 779 792 792 906 944 894 970 970 968 1045 1058 1058 1058 1091 1134 1129 1066 1087 1066 1059 993 993 1059 950 967 975 975 976 1153 1148 1132 1132 993 835 700 629 629 591 588 565 502 502 466 466 466 466 466 466 466 466 466 466 466 573 640 640 760 813 732 632 632 574 520 469 365 365 319 319 356 400 400 425 439 532 481 481 484 541 565 477 477 553 646 637 637 591 665 782 802 784 678 608 555 524 524 610 604 -9999 -9999 -9999 -9999 -9999 -9999 -9999 -9999 -9999 -9999 -9999 -9999 -9999 -9999 -9999 -9999 -9999 -9999 -9999 -9999 -9999 -9999 -9999 -9999 -9999 -9999 -9999 -9999 -9999 -9999 -9999 -9999 -9999 -9999 -9999 -9999 -9999 -9999 -9999 -9999 -9999 -9999 -9999 -9999 -9999 -9999 -9999 -9999 -9999 -9999 -9999 -9999 -9999 -9999 -9999 -9999 -9999 -9999 -9999 -9999 -9999 -9999 -9999 -9999 -9999 -9999 -9999 -9999 -9999 -9999 -9999 -9999 -9999 -9999 -9999 -9999 -9999 -9999 -9999 -9999 -9999 -9999 -9999 -9999 -9999 -9999 -9999 -9999 -9999 -9999 -9999 -9999 -9999 -9999 -9999 -9999 -9999 -9999 -9999 -9999 -9999 -9999 -9999 -9999 -9999 -9999 -9999 -9999 -9999 -9999 -9999 -9999 -9999 -9999 -9999 -9999 -9999 -9999 -9999 -9999 -9999 -9999 -9999 -9999 -9999 -9999 -9999 -9999 -9999 -9999 -9999 -9999 -9999 -9999 -9999 -9999 -9999 -9999 -9999 -9999 -9999 -9999 -9999 -9999 -9999 -9999 -9999 -9999 -9999
-9999 -9999 -9999 -9999 -9999 -9999 -9999 -9999 -9999 -9999 -9999 -9999 -9999 -9999 -9999 -9999 -9999 -9999 -9999 -9999 -9999 -9999 -9999 -9999 -9999 -9999 797 775 752 752 689 594 553 544 544 498 548 566 623 623 591 570 566 602 602 568 562 505 487 487 502 522 500 500 500 494 474 476 496 496 511 518 461 461 461 509 501 511 491 513 457 474 485 485 508 500 492 476 476 503 551 544 514 514 533 481 489 493 493 487 453 461 461 462 456 438 450 450 438 454 448 480 480 547 575 618 627 627 688 892 799 742 742 740 692 611 582 582 540 486 417 443 443 415 434 394 394 374 374 395 444 444 374 374 430 447 447 476 438 454 483 483 430 518 507 579 579 659 732 832 888 888 920 923 853 853 -9999 -9999 874 848 848 855 891 874 792 792 732 708 722 715 715 727 731 704 824 824 720 681 678 620 620 637 612 599 599 607 633 691 716 716 758 826 950 1033 1033 967 952 894 866 866 815 811 759 789 789 781 675 626 707 707 744 695 746 848 848 819 894 917 917 962 976 1041 1081 1081 1132 1212 1129 1066 1066 1075 1078 1086 1086 1086 950 1014 1012 975 975 1007 1117 1146 1092 1092 880 725 640 629 584 530 518 504 504 466 466 466 545 545 466 466 466 466 466 466 544 623 705 705 813 715 586 573 573 595 468 388 388 319 319 371 425 425 461 457 572 617 617 481 528 565 490 490 614 703 638 536 536 651 686 802 655 655 597 564 626 626 656 613 -9999 -9999 -9999 -9999 -9999 -9999 -9999 -9999 -9999 -9999 -9999 -9999 -9999 -9999 -9999 -9999 -9999 -9999 -9999 -9999 -9999 -9999 -9999 -9999 -9999 -9999 -9999 -9999 -9999 -9999 -9999 -9999 -9999 -9999 -9999 -9999 -9999 -9999 -9999 -9999 -9999 -9999 -9999 -9999 -9999 -9999 -9999 -9999 -9999 -9999 -9999 -9999 -9999 -9999 -9999 -9999 -9999 -9999 -9999 -9999 -9999 -9999 -9999 -9999 -9999 -9999 -9999 -9999 -9999 -9999 -9999 -9999 -9999 -9999 -9999 -9999 -9999 -9999 -9999 -9999 -9999 -9999 -9999 -9999 -9999 -9999 -9999 -9999 -9999 -9999 -9999 -9999 -9999 -9999 -9999 -9999 -9999 -9999 -9999 -9999 -9999 -9999 -9999 -9999 -9999 -9999 -9999 -9999 -9999 -9999 -9999 -9999 -9999 -9999 -9999 -9999 -9999 -9999 -9999 -9999 -9999 -9999 -9999 -9999 -9999 -9999 -9999 -9999 -9999 -9999 -9999 -9999 -9999 -9999 -9999 -9999 -9999 -9999 -9999 -9999 -9999 -9999 -9999 -9999 -9999 -9999 -9999 -9999 -9999
-9999 -9999 -9999 -9999 -9999 -9999 -9999 -9999 -9999 -9999 -9999 -9999 -9999 -9999 -9999 -9999 -9999 -9999 -9999 -9999 -9999 -9999 -9999 -9999 759 759 732 752 687 613 613 575 529 557 496 498 520 548 596 623 623 614 587 559 559 574 562 531 489 489 484 529 521 515 515 494 474 484 498 498 489 468 461 461 461 474 508 511 473 473 457 484 511 495 495 485 475 501 476 500 550 555 585 585 543 495 466 472 493 487 458 455 444 444 455 439 438 449 449 454 472 521 666 666 745 731 800 800 829 912 799 747 747 677 616 586 540 540 489 432 417 436 436 429 401 374 374 374 374 399 476 381 381 428 511 533 498 498 519 549 510 483 430 472 516 567 567 667 721 845 836 836 920 -9999 -9999 -9999 -9999 -9999 -9999 975 1028 1028 891 874 849 807 807 782 761 770 770 803 744 704 774 774 685 633 593 620 620 591 595 599 637 637 650 681 713 753 753 850 966 978 1007 1007 929 813 757 773 773 708 700 737 789 781 746 626 731 731 670 707 750 840 840 819 859 933 1047 1047 1025 995 1044 1095 1095 1212 1189 1158 1217 1217 1197 1165 1044 1044 1052 1106 1012 1042 1042 1043 1069 1148 1109 1109 1002 891 640 569 569 531 495 466 466 466 485 485 545 479 479 466 466 466 466 466 478 573 685 705 757 653 646 589 589 558 428 377 377 319 319 345 356 450 450 504 593 654 517 481 528 663 553 553 590 723 656 553 553 525 686 654 702 702 650 622 669 645 645 644 -9999 -9999 -9999 -9999 -9999 -9999 -9999 -9999 -9999 -9999 -9999 -9999 -9999 -9999 -9999 -9999 -9999 -9999 -9999 -9999 -9999 -9999 -9999 -9999 -9999 -9999 -9999 -9999 -9999 -9999 -9999 -9999 -9999 -9999 -9999 -9999 -9999 -9999 -9999 -9999 -9999 -9999 -9999 -9999 -9999 -9999 -9999 -9999 -9999 -9999 -9999 -9999 -9999 -9999 -9999 -9999 -9999 -9999 -9999 -9999 -9999 -9999 -9999 -9999 -9999 -9999 -9999 -9999 -9999 -9999 -9999 -9999 -9999 -9999 -9999 -9999 -9999 -9999 -9999 -9999 -9999 -9999 -9999 -9999 -9999 -9999 -9999 -9999 -9999 -9999 -9999 -9999 -9999 -9999 -9999 -9999 -9999 -9999 -9999 -9999 -9999 -9999 -9999 -9999 -9999 -9999 -9999 -9999 -9999 -9999 -9999 -9999 -9999 -9999 -9999 -9999 -9999 -9999 -9999 -9999 -9999 -9999 -9999 -9999 -9999 -9999 -9999 -9999 -9999 -9999 -9999 -9999 -9999 -9999 -9999 -9999 -9999 -9999 -9999 -9999 -9999 -9999 -9999 -9999 -9999 -9999 -9999 -9999 -9999
-9999 -9999 -9999 -9999 -9999 -9999 -9999 -9999 -9999 -9999 -9999 -9999 -9999 -9999 -9999 -9999 -9999 -9999 -9999 -9999 -9999 -9999 -9999 -9999 780 700 700 705 700 612 612 593 560 529 496 496 507 538 550 628 628 586 580 546 574 574 531 511 512 484 484 485 515 532 540 494 498 468 467 465 465 461 461 461 461 510 508 459 457 457 475 513 482 480 480 475 472 501 544 544 596 563 518 503 503 496 466 472 496 496 494 460 444 444 454 438 438 441 449 460 498 553 676 676 730 842 777 837 829 912 757 715 626 626 509 508 456 434 434 432 409 409 440 440 433 394 374 374 374 397 476 414 414 439 469 540 568 568 570 581 510 478 478 483 539 563 648 648 718 855 881 -9999 -9999 -9999 -9999 -9999 -9999 -9999 -9999 -9999 1130 1028 1097 979 893 865 865 838 765 787 770 770 744 678 650 645 645 651 591 591 591 591 595 598 614 643 643 677 779 828 828 877 949 978 886 886 817 769 710 700 700 700 700 737 732 732 679 614 681 635 635 718 789 797 784 784 837 941 993 993 931 1039 1111 1145 1095 1175 1107 1128 1140 1140 1125 1165 1063 1133 1133 1106 1052 1087 1153 1153 1162 1246 1153 1110 1110 891 699 632 632 576 553 537 466 466 493 485 536 522 522 466 466 466 466 466 466 519 685 696 696 707 648 544 478 478 422 416 377 377 358 319 334 376 376 461 592 668 517 517 546 673 584 684 684 710 667 605 475 525 625 612 641 589 589 605 595 583 583 644 -9999 -9999 -9999 -9999 -9999 -9999 -9999 -9999 -9999 -9999 -9999 -9999 -9999 -9999 -9999 -9999 -9999 -9999 -9999 -9999 -9999 -9999 -9999 -9999 -9999 -9999 -9999 -9999 -9999 -9999 -9999 -9999 -9999 -9999 -9999 -9999 -9999 -9999 -9999 -9999 -9999 -9999 -9999 -9999 -9999 -9999 -9999 -9999 -9999 -9999 -9999 -9999 -9999 -9999 -9999 -9999 -9999 -9999 -9999 -9999 -9999 -9999 -9999 -9999 -9999 -9999 -9999 -9999 -9999 -9999 -9999 -9999 -9999 -9999 -9999 -9999 -9999 -9999 -9999 -9999 -9999 -9999 -9999 -9999 -9999 -9999 -9999 -9999 -9999 -9999 -9999 -9999 -9999 -9999 -9999 -9999 -9999 -9999 -9999 -9999 -9999 -9999 -9999 -9999 -9999 -9999 -9999 -9999 -9999 -9999 -9999 -9999 -9999 -9999 -9999 -9999 -9999 -9999 -9999 -9999 -9999 -9999 -9999 -9999 -9999 -9999 -9999 -9999 -9999 -9999 -9999 -9999 -9999 -9999 -9999 -9999 -9999 -9999 -9999 -9999 -9999 -9999 -9999 -9999 -9999 -9999 -9999 -9999 -9999
-9999 -9999 -9999 -9999 -9999 -9999 -9999 -9999 -9999 -9999 -9999 -9999 -9999 -9999 -9999 -9999 -9999 -9999 -9999 -9999 -9999 -9999 -9999 -9999 696 653 653 648 623 584 622 622 560 529 495 499 499 504 530 577 574 574 587 546 516 516 511 505 508 490 490 484 537 525 540 540 501 490 490 499 499 483 461 461 493 510 480 466 457 465 465 473 457 457 466 475 472 501 543 543 581 538 509 505 505 483 466 464 492 492 489 458 441 478 478 438 446 441 479 479 522 553 660 706 706 745 700 837 846 846 771 649 559 559 486 436 420 420 434 444 421 409 409 409 394 456 388 387 387 397 433 510 480 480 528 557 613 610 610 581 573 511 511 524 541 589 657 657 730 817 -9999 -9999 -9999 -9999 -9999 -9999 -9999 -9999 -9999 -9999 1130 1010 1010 905 841 806 803 803 784 689 668 770 712 677 610 616 616 591 591 600 600 591 617 639 637 673 673 719 741 825 919 919 949 871 820 772 772 770 792 814 714 714 700 661 661 661 661 666 614 594 594 688 740 797 717 717 808 909 877 907 907 983 1029 1145 1099 1099 1006 986 1004 1050 1050 1093 1126 1133 1133 1101 1117 1074 1112 1112 1239 1268 1273 1216 1110 977 753 659 645 645 603 499 520 479 493 479 493 519 491 491 466 466 466 466 466 519 591 705 705 634 598 590 519 519 492 416 443 414 414 365 319 333 445 445 556 668 552 638 638 648 677 764 729 729 674 605 475 475 508 574 539 545 545 564 494 548 694 694 -9999 -9999 -9999 -9999 -9999 -9999 -9999 -9999 -9999 -9999 -9999 -9999 -9999 -9999 -9999 -9999 -9999 -9999 -9999 -9999 -9999 -9999 -9999 -9999 -9999 -9999 -9999 -9999 -9999 -9999 -9999 -9999 -9999 -9999 -9999 -9999 -9999 -9999 -9999 -9999 -9999 -9999 -9999 -9999 -9999 -9999 -9999 -9999 -9999 -9999 -9999 -9999 -9999 -9999 -9999 -9999 -9999 -9999 -9999 -9999 -9999 -9999 -9999 -9999 -9999 -9999 -9999 -9999 -9999 -9999 -9999 -9999 -9999 -9999 -9999 -9999 -9999 -9999 -9999 -9999 -9999 -9999 -9999 -9999 -9999 -9999 -9999 -9999 -9999 -9999 -9999 -9999 -9999 -9999 -9999 -9999 -9999 -9999 -9999 -9999 -9999 -9999 -9999 -9999 -9999 -9999 -9999 -9999 -9999 -9999 -9999 -9999 -9999 -9999 -9999 -9999 -9999 -9999 -9999 -9999 -9999 -9999 -9999 -9999 -9999 -9999 -9999 -9999 -9999 -9999 -9999 -9999 -9999 -9999 -9999 -9999 -9999 -9999 -9999 -9999 -9999 -9999 -9999 -9999 -9999 -9999 -9999 -9999 -9999
-9999 -9999 -9999 -9999 -9999 -9999 -9999 -9999 -9999 -9999 -9999 -9999 -9999 -9999 -9999 -9999 -9999 -9999 -9999 -9999 -9999 -9999 -9999 -9999 744 633 588 588 567 555 601 622 589 530 512 489 489 516 547 543 574 574 587 549 513 496 496 508 505 534 514 514 484 525 524 517 517 520 521 507 507 507 464 461 493 493 483 481 450 451 451 451 458 475 466 466 477 526 533 531 531 503 503 504 505 483 486 477 464 485 485 467 451 430 430 430 446 447 488 488 479 525 579 552 552 634 700 774 754 754 697 568 478 465 465 420 420 420 420 420 409 434 444 468 468 445 404 387 387 436 518 514 487 487 560 615 634 659 610 624 637 574 555 555 566 605 616 682 730 817 -9999 -9999 -9999 -9999 -9999 -9999 -9999 -9999 -9999 -9999 1085 995 995 983 879 772 709 709 712 662 668 678 678 642 614 591 591 591 602 601 600 613 613 633 706 710 758 758 790 870 959 919 943 857 843 847 847 889 880 817 789 714 757 703 733 763 763 745 684 583 701 688 740 787 725 699 699 821 795 792 792 914 1029 1095 979 979 850 893 902 1021 1021 1083 1126 1140 1107 1107 1059 1038 1039 1113 1113 1215 1284 1216 1062 1062 929 724 654 654 588 560 556 479 479 491 578 537 466 466 466 466 466 466 466 490 602 744 639 639 697 676 567 593 492 487 531 477 383 383 319 384 456 456 556 668 638 718 718 742 654 699 748 748 674 617 485 433 433 492 501 506 499 499 479 548 635 567 -9999 -9999 -9999 -9999 -9999 -9999 -9999 -9999 -9999 -9999 -9999 -9999 -9999 -9999 -9999 -9999 -9999 -9999 -9999 -9999 -9999 -9999 -9999 -9999 -9999 -9999 -9999 -9999 -9999 -9999 -9999 -9999 -9999 -9999 -9999 -9999 -9999 -9999 -9999 -9999 -9999 -9999 -9999 -9999 -9999 -9999 -9999 -9999 -9999 -9999 -9999 -9999 -9999 -9999 -9999 -9999 -9999 -9999 -9999 -9999 -9999 -9999 -9999 -9999 -9999 -9999 -9999 -9999 -9999 -9999 -9999 -9999 -9999 -9999 -9999 -9999 -9999 -9999 -9999 -9999 -9999 -9999 -9999 -9999 -9999 -9999 -9999 -9999 -9999 -9999 -9999 -9999 -9999 -9999 -9999 -9999 -9999 -9999 -9999 -9999 -9999 -9999 -9999 -9999 -9999 -9999 -9999 -9999 -9999 -9999 -9999 -9999 -9999 -9999 -9999 -9999 -9999 -9999 -9999 -9999 -9999 -9999 -9999 -9999 -9999 -9999 -9999 -9999 -9999 -9999 -9999 -9999 -9999 -9999 -9999 -9999 -9999 -9999 -9999 -9999 -9999 -9999 -9999 -9999 -9999 -9999 -9999 -9999 -9999
-9999 -9999 -9999 -9999 -9999 -9999 -9999 -9999 -9999 -9999 -9999 -9999 -9999 -9999 -9999 -9999 -9999 -9999 -9999 -9999 -9999 -9999 -9999 -9999 -9999 646 613 613 572 543 601 605 605 538 509 486 541 541 524 505 561 601 601 584 534 508 496 496 486 486 486 486 484 468 500 503 503 498 512 485 479 479 464 461 471 459 459 468 456 450 482 482 458 475 483 493 493 520 516 518 518 501 499 483 505 505 523 489 444 470 470 478 430 430 430 430 445 478 497 502 502 515 568 542 531 634 691 726 679 616 616 507 439 420 420 420 420 420 447 447 430 427 497 515 515 448 404 455 526 526 585 595 565 542 542 582 670 659 714 714 676 649 589 589 571 599 611 682 682 764 -9999 -9999 -9999 -9999 -9999 -9999 -9999 -9999 -9999 -9999 971 893 829 829 791 741 672 636 712 662 644 619 604 604 591 591 591 591 594 601 619 626 626 699 709 749 764 764 809 870 959 979 979 952 907 881 832 832 821 817 789 830 830 813 826 795 795 689 566 566 701 701 779 712 679 679 679 707 729 768 845 914 946 1010 950 792 792 709 788 829 933 1083 1098 1189 1155 1155 1099 1058 983 1042 1042 1215 1284 1298 1190 1190 1000 911 726 630 630 622 556 566 555 555 612 521 466 466 466 466 466 466 515 515 584 697 737 737 731 761 662 593 593 561 564 439 389 389 319 371 518 615 615 736 656 598 739 739 733 700 680 712 712 586 490 413 413 453 490 505 433 499 479 572 587 544 -9999 -9999 -9999 -9999 -9999 -9999 -9999 -9999 -9999 -9999 -9999 -9999 -9999 -9999 -9999 -9999 -9999 -9999 -9999 -9999 -9999 -9999 -9999 -9999 -9999 -9999 -9999 -9999 -9999 -9999 -9999 -9999 -9999 -9999 -9999 -9999 -9999 -9999 -9999 -9999 -9999 -9999 -9999 -9999 -9999 -9999 -9999 -9999 -9999 -9999 -9999 -9999 -9999 -9999 -9999 -9999 -9999 -9999 -9999 -9999 -9999 -9999 -9999 -9999 -9999 -9999 -9999 -9999 -9999 -9999 -9999 -9999 -9999 -9999 -9999 -9999 -9999 -9999 -9999 -9999 -9999 -9999 -9999 -9999 -9999 -9999 -9999 -9999 -9999 -9999 -9999 -9999 -9999 -9999 -9999 -9999 -9999 -9999 -9999 -9999 -9999 -9999 -9999 -9999 -9999 -9999 -9999 -9999 -9999 -9999 -9999 -9999 -9999 -9999 -9999 -9999 -9999 -9999 -9999 -9999 -9999 -9999 -9999 -9999 -9999 -9999 -9999 -9999 -9999 -9999 -9999 -9999 -9999 -9999 -9999 -9999 -9999 -9999 -9999 -9999 -9999 -9999 -9999 -9999 -9999 -9999 -9999 -9999 -9999
-9999 -9999 -9999 -9999 -9999 -9999 -9999 -9999 -9999 -9999 -9999 -9999 -9999 -9999 -9999 -9999 -9999 -9999 -9999 -9999 -9999 -9999 -9999 -9999 -9999 657 645 580 580 543 565 570 570 539 550 485 507 507 506 496 561 550 550 529 531 517 539 539 545 520 486 465 465 465 475 483 476 476 471 488 462 466 466 450 459 461 461 461 450 482 497 497 458 473 494 501 501 525 507 470 512 512 505 483 485 492 492 482 440 430 430 430 430 430 430 456 456 515 536 562 562 569 548 507 531 531 582 637 569 533 533 441 420 420 420 420 420 438 469 427 427 441 444 503 495 448 471 483 540 540 598 638 637 611 611 581 670 702 788 788 731 673 628 574 574 586 611 667 -9999 -9999 -9999 -9999 -9999 -9999 -9999 -9999 -9999 -9999 -9999 -9999 949 856 795 795 748 656 636 636 636 696 619 591 591 591 619 591 591 608 594 603 612 647 687 687 695 734 775 809 809 900 993 1084 1084 1027 877 781 779 779 761 817 835 770 770 846 804 742 642 642 622 566 618 741 741 652 693 600 664 664 755 823 845 845 882 873 876 754 754 646 708 737 933 933 1043 1148 1239 1151 1151 1077 980 929 1113 1113 1179 1197 1168 1087 1087 908 723 640 618 622 594 582 622 622 621 529 466 466 466 466 466 466 542 542 581 652 768 804 804 761 662 719 632 632 541 471 365 319 319 328 518 618 618 612 554 578 677 677 747 714 680 720 720 550 442 409 486 486 489 448 433 461 461 499 499 577 -9999 -9999 -9999 -9999 -9999 -9999 -9999 -9999 -9999 -9999 -9999 -9999 -9999 -9999 -9999 -9999 -9999 -9999 -9999 -9999 -9999 -9999 -9999 -9999 -9999 -9999 -9999 -9999 -9999 -9999 -9999 -9999 -9999 -9999 -9999 -9999 -9999 -9999 -9999 -9999 -9999 -9999 -9999 -9999 -9999 -9999 -9999 -9999 -9999 -9999 -9999 -9999 -9999 -9999 -9999 -9999 -9999 -9999 -9999 -9999 -9999 -9999 -9999 -9999 -9999 -9999 -9999 -9999 -9999 -9999 -9999 -9999 -9999 -9999 -9999 -9999 -9999 -9999 -9999 -9999 -9999 -9999 -9999 -9999 -9999 -9999 -9999 -9999 -9999 -9999 -9999 -9999 -9999 -9999 -9999 -9999 -9999 -9999 -9999 -9999 -9999 -9999 -9999 -9999 -9999 -9999 -9999 -9999 -9999 -9999 -9999 -9999 -9999 -9999 -9999 -9999 -9999 -9999 -9999 -9999 -9999 -9999 -9999 -9999 -9999 -9999 -9999 -9999 -9999 -9999 -9999 -9999 -9999 -9999 -9999 -9999 -9999 -9999 -9999 -9999 -9999 -9999 -9999 -9999 -9999 -9999 -9999 -9999 -9999
-9999 -9999 -9999 -9999 -9999 -9999 -9999 -9999 -9999 -9999 -9999 -9999 -9999 -9999 -9999 -9999 -9999 -9999 -9999 -9999 -9999 -9999 -9999 -9999 -9999 650 622 606 580 586 539 518 531 531 527 505 485 485 485 496 527 515 506 506 538 526 543 542 542 520 483 479 479 484 465 457 466 466 457 469 462 458 458 450 450 459 450 450 450 455 498 482 482 479 515 505 489 489 478 470 495 512 505 511 483 471 471 440 458 453 438 438 430 430 430 467 467 553 638 683 580 580 461 507 473 496 496 535 471 422 420 420 420 420 420 420 420 420 453 446 446 474 464 444 495 495 470 496 524 576 576 629 679 682 581 581 613 662 718 766 766 728 666 640 640 586 609 -9999 -9999 -9999 -9999 -9999 -9999 -9999 -9999 -9999 -9999 -9999 -9999 929 926 804 759 657 657 636 636 646 708 708 637 611 631 599 599 591 591 608 608 635 673 682 728 728 752 786 861 809 809 897 995 1015 982 982 930 859 777 698 761 726 775 770 858 858 835 806 748 748 622 561 612 722 722 593 680 584 658 658 755 823 847 850 850 841 873 763 651 651 636 737 817 939 939 1081 1108 1061 1059 1059 954 929 1034 1034 1044 1030 1056 1012 1012 864 694 598 618 618 622 603 588 550 550 502 466 466 466 466 466 506 511 531 531 624 720 828 804 813 841 753 637 637 488 436 343 350 350 328 423 533 608 608 488 600 658 686 686 714 668 586 508 508 428 409 468 468 439 448 420 419 419 450 497 570 -9999 -9999 -9999 -9999 -9999 -9999 -9999 -9999 -9999 -9999 -9999 -9999 -9999 -9999 -9999 -9999 -9999 -9999 -9999 -9999 -9999 -9999 -9999 -9999 -9999 -9999 -9999 -9999 -9999 -9999 -9999 -9999 -9999 -9999 -9999 -9999 -9999 -9999 -9999 -9999 -9999 -9999 -9999 -9999 -9999 -9999 -9999 -9999 -9999 -9999 -9999 -9999 -9999 -9999 -9999 -9999 -9999 -9999 -9999 -9999 -9999 -9999 -9999 -9999 -9999 -9999 -9999 -9999 -9999 -9999 -9999 -9999 -9999 -9999 -9999 -9999 -9999 -9999 -9999 -9999 -9999 -9999 -9999 -9999 -9999 -9999 -9999 -9999 -9999 -9999 -9999 -9999 -9999 -9999 -9999 -9999 -9999 -9999 -9999 -9999 -9999 -9999 -9999 -9999 -9999 -9999 -9999 -9999 -9999 -9999 -9999 -9999 -9999 -9999 -9999 -9999 -9999 -9999 -9999 -9999 -9999 -9999 -9999 -9999 -9999 -9999 -9999 -9999 -9999 -9999 -9999 -9999 -9999 -9999 -9999 -9999 -9999 -9999 -9999 -9999 -9999 -9999 -9999 -9999 -9999 -9999 -9999 -9999 -9999
-9999 -9999 -9999 -9999 -9999 -9999 -9999 -9999 -9999 -9999 -9999 -9999 -9999 -9999 -9999 -9999 -9999 -9999 -9999 -9999 -9999 -9999 -9999 -9999 -9999 693 636 606 570 570 597 559 492 492 487 511 515 485 485 482 506 484 486 486 524 500 498 524 542 498 490 482 480 480 458 461 457 457 457 469 480 461 468 468 450 450 459 459 451 477 498 509 509 487 481 482 468 468 464 469 495 498 498 520 503 471 487 487 497 454 431 450 450 430 430 474 542 542 656 552 521 521 461 470 498 420 420 436 420 420 438 438 420 420 420 420 420 420 420 428 506 506 535 444 512 523 523 504 507 526 526 613 668 682 636 636 656 654 712 745 745 -9999 -9999 -9999 -9999 -9999 -9999 -9999 -9999 -9999 -9999 -9999 -9999 -9999 -9999 -9999 -9999 -9999 -9999 850 850 776 679 645 645 636 636 658 704 704 655 611 613 611 611 591 591 618 688 688 714 762 761 833 833 873 861 876 954 954 932 914 1006 1006 996 844 777 698 698 679 730 726 844 844 921 879 793 642 642 561 589 628 589 589 569 616 704 683 683 732 760 755 811 811 858 762 731 731 636 704 759 838 838 973 1070 927 960 960 954 871 946 1032 1032 1020 922 922 871 871 694 598 580 548 548 524 496 502 502 466 466 466 466 466 492 554 621 591 591 663 695 828 934 934 914 731 626 525 525 461 408 350 339 339 441 532 530 530 477 558 665 644 686 643 662 519 448 448 420 396 418 364 439 408 408 445 480 480 568 -9999 -9999 -9999 -9999 -9999 -9999 -9999 -9999 -9999 -9999 -9999 -9999 -9999 -9999 -9999 -9999 -9999 -9999 -9999 -9999 -9999 -9999 -9999 -9999 -9999 -9999 -9999 -9999 -9999 -9999 -9999 -9999 -9999 -9999 -9999 -9999 -9999 -9999 -9999 -9999 -9999 -9999 -9999 -9999 -9999 -9999 -9999 -9999 -9999 -9999 -9999 -9999 -9999 -9999 -9999 -9999 -9999 -9999 -9999 -9999 -9999 -9999 -9999 -9999 -9999 -9999 -9999 -9999 -9999 -9999 -9999 -9999 -9999 -9999 -9999 -9999 -9999 -9999 -9999 -9999 -9999 -9999 -9999 -9999 -9999 -9999 -9999 -9999 -9999 -9999 -9999 -9999 -9999 -9999 -9999 -9999 -9999 -9999 -9999 -9999 -9999 -9999 -9999 -9999 -9999 -9999 -9999 -9999 -9999 -9999 -9999 -9999 -9999 -9999 -9999 -9999 -9999 -9999 -9999 -9999 -9999 -9999 -9999 -9999 -9999 -9999 -9999 -9999 -9999 -9999 -9999 -9999 -9999 -9999 -9999 -9999 -9999 -9999 -9999 -9999 -9999 -9999 -9999 -9999 -9999 -9999 -9999 -9999 -9999 -9999
-9999 -9999 -9999 -9999 -9999 -9999 -9999 -9999 -9999 -9999 -9999 -9999 -9999 -9999 -9999 -9999 -9999 -9999 -9999 -9999 -9999 -9999 -9999 -9999 -9999 693 636 634 627 627 561 539 506 496 496 481 515 496 482 482 482 484 501 515 515 483 489 524 505 505 517 508 480 480 480 463 457 457 457 457 460 457 462 462 452 450 451 450 451 477 504 502 480 480 472 473 459 464 464 469 500 534 534 555 559 517 523 523 500 470 431 430 430 430 430 465 477 477 520 476 521 442 442 463 424 420 420 420 420 420 435 420 420 420 420 422 422 516 506 483 513 513 535 445 507 554 554 534 537 524 578 578 668 705 699 690 690 669 710 -9999 -9999 -9999 -9999 -9999 -9999 -9999 -9999 -9999 -9999 -9999 -9999 -9999 -9999 -9999 -9999 -9999 -9999 -9999 834 781 781 745 672 727 677 677 643 626 698 687 687 651 650 649 591 591 591 622 708 708 735 836 891 884 884 873 932 933 947 947 897 941 1023 966 966 844 747 685 645 645 706 714 835 885 885 782 793 717 612 612 558 558 569 569 574 690 704 694 694 724 755 786 833 833 814 690 658 597 597 652 698 722 886 886 922 836 815 904 904 763 831 940 940 942 797 821 832 871 712 588 537 530 530 504 532 496 466 466 466 466 540 558 558 635 671 641 739 739 695 828 978 978 880 752 654 561 561 458 408 412 339 339 394 501 376 476 476 598 557 644 533 533 569 485 427 388 388 422 364 364 408 408 450 476 501 501 597 -9999 -9999 -9999 -9999 -9999 -9999 -9999 -9999 -9999 -9999 -9999 -9999 -9999 -9999 -9999 -9999 -9999 -9999 -9999 -9999 -9999 -9999 -9999 -9999 -9999 -9999 -9999 -9999 -9999 -9999 -9999 -9999 -9999 -9999 -9999 -9999 -9999 -9999 -9999 -9999 -9999 -9999 -9999 -9999 -9999 -9999 -9999 -9999 -9999 -9999 -9999 -9999 -9999 -9999 -9999 -9999 -9999 -9999 -9999 -9999 -9999 -9999 -9999 -9999 -9999 -9999 -9999 -9999 -9999 -9999 -9999 -9999 -9999 -9999 -9999 -9999 -9999 -9999 -9999 -9999 -9999 -9999 -9999 -9999 -9999 -9999 -9999 -9999 -9999 -9999 -9999 -9999 -9999 -9999 -9999 -9999 -9999 -9999 -9999 -9999 -9999 -9999 -9999 -9999 -9999 -9999 -9999 -9999 -9999 -9999 -9999 -9999 -9999 -9999 -9999 -9999 -9999 -9999 -9999 -9999 -9999 -9999 -9999 -9999 -9999 -9999 -9999 -9999 -9999 -9999 -9999 -9999 -9999 -9999 -9999 -9999 -9999 -9999 -9999 -9999 -9999 -9999 -9999 -9999 -9999 -9999 -9999 -9999 -9999 -9999
-9999 -9999 -9999 -9999 -9999 -9999 -9999 -9999 -9999 -9999 -9999 -9999 -9999 -9999 -9999 -9999 -9999 -9999 -9999 -9999 -9999 -9999 -9999 -9999 691 691 666 666 611 543 543 515 507 523 523 481 487 502 509 509 490 465 507 508 508 483 489 514 539 539 545 491 471 481 481 457 463 457 457 457 457 457 457 462 462 450 450 450 450 472 497 486 479 479 468 460 445 457 464 464 483 515 514 514 574 537 558 491 491 470 476 441 449 449 430 430 420 425 425 476 429 420 420 427 420 420 420 420 461 420 435 459 459 470 482 484 512 512 605 565 513 574 574 529 500 568 583 583 589 559 568 578 622 683 685 711 711 727 -9999 -9999 -9999 -9999 -9999 -9999 -9999 -9999 -9999 -9999 -9999 -9999 -9999 -9999 -9999 -9999 -9999 -9999 -9999 805 802 727 680 680 761 727 771 771 681 590 658 638 638 627 693 649 591 591 611 670 691 734 734 834 949 948 961 961 945 895 846 839 839 961 1026 1020 843 843 750 680 644 644 640 677 763 839 839 782 812 720 668 668 621 612 520 590 590 690 768 759 709 709 680 696 783 697 697 690 658 561 561 648 622 723 860 860 898 754 815 830 830 710 659 733 811 811 810 690 832 793 793 617 531 506 484 484 466 466 466 466 466 466 489 535 535 638 724 723 793 739 851 839 951 926 926 786 680 561 568 458 495 455 339 339 339 344 378 400 490 490 557 629 506 506 473 412 398 364 364 364 364 447 478 478 495 497 492 531 531 -9999 -9999 -9999 -9999 -9999 -9999 -9999 -9999 -9999 -9999 -9999 -9999 -9999 -9999 -9999 -9999 -9999 -9999 -9999 -9999 -9999 -9999 -9999 -9999 -9999 -9999 -9999 -9999 -9999 -9999 -9999 -9999 -9999 -9999 -9999 -9999 -9999 -9999 -9999 -9999 -9999 -9999 -9999 -9999 -9999 -9999 -9999 -9999 -9999 -9999 -9999 -9999 -9999 -9999 -9999 -9999 -9999 -9999 -9999 -9999 -9999 -9999 -9999 -9999 -9999 -9999 -9999 -9999 -9999 -9999 -9999 -9999 -9999 -9999 -9999 -9999 -9999 -9999 -9999 -9999 -9999 -9999 -9999 -9999 -9999 -9999 -9999 -9999 -9999 -9999 -9999 -9999 -9999 -9999 -9999 -9999 -9999 -9999 -9999 -9999 -9999 -9999 -9999 -9999 -9999 -9999 -9999 -9999 -9999 -9999 -9999 -9999 -9999 -9999 -9999 -9999 -9999 -9999 -9999 -9999 -9999 -9999 -9999 -9999 -9999 -9999 -9999 -9999 -9999 -9999 -9999 -9999 -9999 -9999 -9999 -9999 -9999 -9999 -9999 -9999 -9999 -9999 -9999 -9999 -9999 -9999 -9999 -9999 -9999 -9999
-9999 -9999 -9999 -9999 -9999 -9999 -9999 -9999 -9999 -9999 -9999 -9999 -9999 -9999 -9999 -9999 -9999 -9999 -9999 -9999 -9999 -9999 -9999 -9999 624 624 628 610 578 522 522 521 573 532 477 477 472 471 471 493 493 465 473 498 475 483 477 479 498 523 523 471 485 470 470 457 463 475 457 457 466 472 457 457 457 450 450 450 455 455 494 506 473 455 455 459 445 457 471 471 486 482 483 509 509 555 554 491 491 496 521 515 494 494 515 498 466 420 425 420 420 440 420 420 420 429 435 450 450 420 452 469 528 528 564 562 606 606 620 565 513 542 542 600 504 541 550 550 616 600 568 643 643 705 699 725 762 -9999 -9999 -9999 -9999 -9999 -9999 -9999 -9999 -9999 -9999 -9999 -9999 -9999 -9999 -9999 -9999 -9999 -9999 821 821 803 715 705 778 778 761 812 709 637 637 590 606 590 596 596 693 666 591 605 605 669 737 795 795 817 926 948 958 958 843 793 762 906 906 1001 973 1020 905 905 804 749 701 623 623 644 777 839 740 740 772 793 715 550 550 503 503 630 590 720 706 686 642 642 649 643 666 649 697 613 564 530 546 546 615 695 723 770 770 754 750 637 607 607 544 597 633 633 763 690 800 893 893 777 578 550 508 508 474 466 466 466 466 522 605 517 564 564 687 789 793 936 936 1006 913 826 773 773 716 681 568 568 535 524 409 339 339 373 344 366 490 490 539 538 521 438 438 425 371 355 390 364 396 449 499 469 469 476 485 504 504 575 -9999 -9999 -9999 -9999 -9999 -9999 -9999 -9999 -9999 -9999 -9999 -9999 -9999 -9999 -9999 -9999 -9999 -9999 -9999 -9999 -9999 -9999 -9999 -9999 -9999 -9999 -9999 -9999 -9999 -9999 -9999 -9999 -9999 -9999 -9999 -9999 -9999 -9999 -9999 -9999 -9999 -9999 -9999 -9999 -9999 -9999 -9999 -9999 -9999 -9999 -9999 -9999 -9999 -9999 -9999 -9999 -9999 -9999 -9999 -9999 -9999 -9999 -9999 -9999 -9999 -9999 -9999 -9999 -9999 -9999 -9999 -9999 -9999 -9999 -9999 -9999 -9999 -9999 -9999 -9999 -9999 -9999 -9999 -9999 -9999 -9999 -9999 -9999 -9999 -9999 -9999 -9999 -9999 -9999 -9999 -9999 -9999 -9999 -9999 -9999 -9999 -9999 -9999 -9999 -9999 -9999 -9999 -9999 -9999 -9999 -9999 -9999 -9999 -9999 -9999 -9999 -9999 -9999 -9999 -9999 -9999 -9999 -9999 -9999 -9999 -9999 -9999 -9999 -9999 -9999 -9999 -9999 -9999 -9999 -9999 -9999 -9999 -9999 -9999 -9999 -9999 -9999 -9999 -9999 -9999 -9999 -9999 -9999 -9999
-9999 -9999 -9999 -9999 -9999 -9999 -9999 -9999 -9999 -9999 -9999 -9999 -9999 -9999 -9999 -9999 -9999 -9999 -9999 -9999 -9999 -9999 -9999 -9999 611 609 609 588 562 570 583 583 628 532 514 514 486 492 492 465 465 461 460 498 475 475 481 467 500 516 516 507 502 493 461 461 479 478 471 480 480 460 457 457 459 450 450 450 464 464 459 459 467 452 452 434 445 454 441 441 457 456 458 474 474 519 554 532 534 534 580 682 679 581 581 463 447 420 420 420 420 420 420 420 435 430 432 456 450 443 480 570 662 662 679 596 613 661 620 553 513 513 572 572 558 577 560 600 600 600 627 607 681 681 691 745 -9999 -9999 -9999 -9999 -9999 -9999 -9999 -9999 -9999 -9999 -9999 -9999 -9999 -9999 -9999 -9999 -9999 -9999 -9999 794 733 733 709 782 778 872 872 741 665 602 602 590 612 590 600 596 633 614 590 673 673 739 795 824 829 817 926 895 880 795 795 710 820 874 899 899 973 901 808 741 741 682 622 593 593 628 777 857 738 738 692 645 653 586 586 503 589 630 732 732 672 635 632 582 582 603 604 649 591 591 534 505 520 520 557 630 598 611 770 703 604 556 517 517 510 552 590 620 763 627 696 757 699 699 542 501 483 466 474 466 466 503 516 516 602 658 582 582 651 789 872 1015 1015 1056 921 820 733 733 668 681 707 590 590 544 448 387 426 426 355 366 426 419 419 480 438 430 430 389 355 355 390 390 449 425 477 452 452 482 445 465 532 532 -9999 -9999 -9999 -9999 -9999 -9999 -9999 -9999 -9999 -9999 -9999 -9999 -9999 -9999 -9999 -9999 -9999 -9999 -9999 -9999 -9999 -9999 -9999 -9999 -9999 -9999 -9999 -9999 -9999 -9999 -9999 -9999 -9999 -9999 -9999 -9999 -9999 -9999 -9999 -9999 -9999 -9999 -9999 -9999 -9999 -9999 -9999 -9999 -9999 -9999 -9999 -9999 -9999 -9999 -9999 -9999 -9999 -9999 -9999 -9999 -9999 -9999 -9999 -9999 -9999 -9999 -9999 -9999 -9999 -9999 -9999 -9999 -9999 -9999 -9999 -9999 -9999 -9999 -9999 -9999 -9999 -9999 -9999 -9999 -9999 -9999 -9999 -9999 -9999 -9999 -9999 -9999 -9999 -9999 -9999 -9999 -9999 -9999 -9999 -9999 -9999 -9999 -9999 -9999 -9999 -9999 -9999 -9999 -9999 -9999 -9999 -9999 -9999 -9999 -9999 -9999 -9999 -9999 -9999 -9999 -9999 -9999 -9999 -9999 -9999 -9999 -9999 -9999 -9999 -9999 -9999 -9999 -9999 -9999 -9999 -9999 -9999 -9999 -9999 -9999 -9999 -9999 -9999 -9999 -9999 -9999 -9999 -9999 -9999
-9999 -9999 -9999 -9999 -9999 -9999 -9999 -9999 -9999 -9999 -9999 -9999 -9999 -9999 -9999 -9999 -9999 -9999 -9999 -9999 -9999 -9999 -9999 -9999 608 597 597 570 582 599 581 581 628 545 514 540 540 510 493 485 495 495 460 468 455 455 455 465 474 495 486 486 515 493 482 482 500 486 501 501 501 475 461 458 459 459 450 450 450 450 450 450 484 472 434 434 434 454 438 460 460 443 478 511 544 519 595 561 619 619 673 797 659 542 542 449 447 443 420 420 420 420 420 445 445 447 432 456 467 467 597 713 687 748 748 684 667 661 661 563 513 513 537 537 592 596 567 581 600 633 643 640 654 654 680 719 -9999 -9999 -9999 -9999 -9999 -9999 -9999 -9999 -9999 -9999 -9999 -9999 -9999 -9999 -9999 -9999 -9999 -9999 -9999 -9999 841 841 838 782 862 805 805 735 644 621 590 590 590 590 600 608 608 595 590 644 671 671 685 747 829 856 856 865 762 696 696 707 756 786 848 899 927 861 863 832 832 704 603 593 611 628 733 826 766 674 674 618 553 536 499 499 589 681 665 665 600 599 572 543 543 568 604 581 564 564 558 536 504 523 523 552 598 611 647 647 582 614 572 496 496 542 616 620 595 595 576 590 584 584 555 475 466 466 466 466 479 520 630 630 634 745 734 689 651 764 852 1023 979 979 945 807 745 648 668 667 704 617 617 553 425 482 403 403 355 355 355 459 459 427 431 394 382 382 355 355 414 390 390 449 437 416 426 426 460 465 520 520 533 -9999 -9999 -9999 -9999 -9999 -9999 -9999 -9999 -9999 -9999 -9999 -9999 -9999 -9999 -9999 -9999 -9999 -9999 -9999 -9999 -9999 -9999 -9999 -9999 -9999 -9999 -9999 -9999 -9999 -9999 -9999 -9999 -9999 -9999 -9999 -9999 -9999 -9999 -9999 -9999 -9999 -9999 -9999 -9999 -9999 -9999 -9999 -9999 -9999 -9999 -9999 -9999 -9999 -9999 -9999 -9999 -9999 -9999 -9999 -9999 -9999 -9999 -9999 -9999 -9999 -9999 -9999 -9999 -9999 -9999 -9999 -9999 -9999 -9999 -9999 -9999 -9999 -9999 -9999 -9999 -9999 -9999 -9999 -9999 -9999 -9999 -9999 -9999 -9999 -9999 -9999 -9999 -9999 -9999 -9999 -9999 -9999 -9999 -9999 -9999 -9999 -9999 -9999 -9999 -9999 -9999 -9999 -9999 -9999 -9999 -9999 -9999 -9999 -9999 -9999 -9999 -9999 -9999 -9999 -9999 -9999 -9999 -9999 -9999 -9999 -9999 -9999 -9999 -9999 -9999 -9999 -9999 -9999 -9999 -9999 -9999 -9999 -9999 -9999 -9999 -9999 -9999 -9999 -9999 -9999 -9999 -9999 -9999
-9999 -9999 -9999 -9999 -9999 -9999 -9999 -9999 -9999 -9999 -9999 -9999 -9999 -9999 -9999 -9999 -9999 -9999 -9999 -9999 -9999 -9999 -9999 -9999 621 600 600 600 602 586 581 596 596 584 569 542 488 488 488 491 492 495 480 457 472 475 475 455 455 466 470 470 515 518 498 509 509 529 508 462 458 458 450 458 450 450 450 450 450 455 455 460 488 472 452 452 451 431 452 443 443 457 461 524 544 544 592 657 714 823 823 737 607 509 456 449 420 420 420 432 432 420 440 423 423 447 472 500 582 582 608 709 774 787 787 799 667 714 676 676 553 516 513 530 530 546 567 581 580 580 601 666 693 686 686 713 -9999 -9999 -9999 -9999 -9999 -9999 -9999 -9999 -9999 -9999 -9999 -9999 -9999 -9999 -9999 -9999 -9999 -9999 -9999 -9999 -9999 935 838 852 732 690 676 676 615 601 592 592 590 590 590 590 590 590 611 604 645 645 738 747 809 804 804 763 696 681 710 710 765 846 848 798 798 825 898 845 712 712 627 593 611 611 715 739 753 723 723 657 611 604 499 499 494 615 575 504 504 516 543 578 594 568 600 541 538 539 539 541 475 494 537 552 558 522 544 544 609 602 507 467 467 593 616 640 624 624 569 539 537 475 475 480 466 466 466 466 490 528 632 736 736 744 734 689 689 731 817 948 873 873 848 829 730 648 648 668 581 571 525 525 506 481 466 355 355 355 466 472 393 393 378 367 355 382 362 355 377 377 377 395 401 401 426 426 460 449 468 457 457 -9999 -9999 -9999 -9999 -9999 -9999 -9999 -9999 -9999 -9999 -9999 -9999 -9999 -9999 -9999 -9999 -9999 -9999 -9999 -9999 -9999 -9999 -9999 -9999 -9999 -9999 -9999 -9999 -9999 -9999 -9999 -9999 -9999 -9999 -9999 -9999 -9999 -9999 -9999 -9999 -9999 -9999 -9999 -9999 -9999 -9999 -9999 -9999 -9999 -9999 -9999 -9999 -9999 -9999 -9999 -9999 -9999 -9999 -9999 -9999 -9999 -9999 -9999 -9999 -9999 -9999 -9999 -9999 -9999 -9999 -9999 -9999 -9999 -9999 -9999 -9999 -9999 -9999 -9999 -9999 -9999 -9999 -9999 -9999 -9999 -9999 -9999 -9999 -9999 -9999 -9999 -9999 -9999 -9999 -9999 -9999 -9999 -9999 -9999 -9999 -9999 -9999 -9999 -9999 -9999 -9999 -9999 -9999 -9999 -9999 -9999 -9999 -9999 -9999 -9999 -9999 -9999 -9999 -9999 -9999 -9999 -9999 -9999 -9999 -9999 -9999 -9999 -9999 -9999 -9999 -9999 -9999 -9999 -9999 -9999 -9999 -9999 -9999 -9999 -9999 -9999 -9999 -9999 -9999 -9999 -9999 -9999 -9999
-9999 -9999 -9999 -9999 -9999 -9999 -9999 -9999 -9999 -9999 -9999 -9999 -9999 -9999 -9999 -9999 -9999 -9999 -9999 -9999 -9999 -9999 -9999 -9999 657 647 605 605 588 586 590 586 586 600 529 504 495 495 524 515 492 489 489 491 490 497 472 472 461 451 474 514 514 511 479 486 486 539 542 506 497 458 450 450 450 450 450 450 450 450 461 461 488 460 443 443 443 431 433 452 472 472 486 524 568 613 613 740 853 799 799 626 544 509 456 456 420 420 420 431 431 449 420 435 441 441 450 505 562 628 628 693 740 847 886 799 770 719 653 591 591 568 549 588 588 546 560 579 588 588 594 660 684 783 783 787 -9999 -9999 -9999 -9999 -9999 -9999 -9999 -9999 -9999 -9999 -9999 -9999 -9999 -9999 -9999 -9999 -9999 -9999 -9999 -9999 -9999 935 935 786 669 629 617 617 606 590 590 590 590 590 597 590 631 631 608 608 661 774 738 779 811 672 657 657 651 713 779 779 765 846 826 762 762 821 891 834 737 737 648 593 553 619 619 589 652 659 587 587 624 604 601 494 494 515 480 552 552 574 612 589 594 594 603 563 543 530 530 485 500 475 537 537 498 493 453 522 522 533 455 487 567 593 637 631 576 583 583 634 581 583 583 480 466 487 496 496 505 571 624 772 772 744 839 831 776 776 861 833 774 730 730 748 730 585 537 537 560 564 511 511 435 414 466 355 355 355 355 355 355 355 355 368 355 355 355 380 435 427 434 434 464 437 455 449 449 463 509 445 424 424 -9999 -9999 -9999 -9999 -9999 -9999 -9999 -9999 -9999 -9999 -9999 -9999 -9999 -9999 -9999 -9999 -9999 -9999 -9999 -9999 -9999 -9999 -9999 -9999 -9999 -9999 -9999 -9999 -9999 -9999 -9999 -9999 -9999 -9999 -9999 -9999 -9999 -9999 -9999 -9999 -9999 -9999 -9999 -9999 -9999 -9999 -9999 -9999 -9999 -9999 -9999 -9999 -9999 -9999 -9999 -9999 -9999 -9999 -9999 -9999 -9999 -9999 -9999 -9999 -9999 -9999 -9999 -9999 -9999 -9999 -9999 -9999 -9999 -9999 -9999 -9999 -9999 -9999 -9999 -9999 -9999 -9999 -9999 -9999 -9999 -9999 -9999 -9999 -9999 -9999 -9999 -9999 -9999 -9999 -9999 -9999 -9999 -9999 -9999 -9999 -9999 -9999 -9999 -9999 -9999 -9999 -9999 -9999 -9999 -9999 -9999 -9999 -9999 -9999 -9999 -9999 -9999 -9999 -9999 -9999 -9999 -9999 -9999 -9999 -9999 -9999 -9999 -9999 -9999 -9999 -9999 -9999 -9999 -9999 -9999 -9999 -9999 -9999 -9999 -9999 -9999 -9999 -9999 -9999 -9999 -9999 -9999
-9999 -9999 -9999 -9999 -9999 -9999 -9999 -9999 -9999 -9999 -9999 -9999 -9999 -9999 -9999 -9999 -9999 -9999 -9999 -9999 -9999 -9999 -9999 -9999 647 608 609 612 588 589 575 623 605 605 546 531 509 530 530 515 497 476 476 486 503 497 467 467 463 451 474 471 471 476 476 495 536 536 558 570 497 468 468 471 451 451 466 466 450 450 462 477 477 466 459 455 455 435 431 451 475 475 486 502 555 641 641 782 770 709 606 606 544 477 431 420 420 420 435 446 436 436 420 435 441 441 480 550 647 663 663 729 773 897 886 886 839 727 645 584 584 564 553 631 559 559 556 581 621 642 642 730 800 -9999 -9999 -9999 -9999 -9999 -9999 -9999 -9999 -9999 -9999 -9999 -9999 -9999 -9999 -9999 -9999 -9999 -9999 -9999 -9999 -9999 -9999 -9999 995 910 745 745 659 637 625 607 607 590 590 590 609 609 597 590 590 590 580 580 580 774 774 820 770 658 651 651 755 795 849 842 842 812 716 752 829 829 931 857 720 704 648 572 529 529 529 536 597 599 568 568 624 634 549 515 515 449 483 534 602 602 581 589 591 557 557 539 513 483 476 476 495 475 494 510 510 508 453 474 474 460 440 487 567 567 543 494 507 510 510 569 624 670 576 576 523 551 541 557 557 597 686 785 754 754 765 772 792 792 832 871 788 730 730 748 665 529 457 457 484 451 464 413 413 414 424 357 355 355 355 355 355 355 355 368 355 355 407 407 398 418 505 505 523 437 455 489 489 486 494 426 393 393 433 -9999 -9999 -9999 -9999 -9999 -9999 -9999 -9999 -9999 -9999 -9999 -9999 -9999 -9999 -9999 -9999 -9999 -9999 -9999 -9999 -9999 -9999 -9999 -9999 -9999 -9999 -9999 -9999 -9999 -9999 -9999 -9999 -9999 -9999 -9999 -9999 -9999 -9999 -9999 -9999 -9999 -9999 -9999 -9999 -9999 -9999 -9999 -9999 -9999 -9999 -9999 -9999 -9999 -9999 -9999 -9999 -9999 -9999 -9999 -9999 -9999 -9999 -9999 -9999 -9999 -9999 -9999 -9999 -9999 -9999 -9999 -9999 -9999 -9999 -9999 -9999 -9999 -9999 -9999 -9999 -9999 -9999 -9999 -9999 -9999 -9999 -9999 -9999 -9999 -9999 -9999 -9999 -9999 -9999 -9999 -9999 -9999 -9999 -9999 -9999 -9999 -9999 -9999 -9999 -9999 -9999 -9999 -9999 -9999 -9999 -9999 -9999 -9999 -9999 -9999 -9999 -9999 -9999 -9999 -9999 -9999 -9999 -9999 -9999 -9999 -9999 -9999 -9999 -9999 -9999 -9999 -9999 -9999 -9999 -9999 -9999 -9999 -9999 -9999 -9999 -9999 -9999 -9999 -9999 -9999 -9999
-9999 -9999 -9999 -9999 -9999 -9999 -9999 -9999 -9999 -9999 -9999 -9999 -9999 -9999 -9999 -9999 -9999 -9999 -9999 -9999 -9999 -9999 -9999 644 645 633 626 612 612 586 590 565 520 520 515 497 497 506 530 518 498 487 474 474 465 469 488 491 463 451 461 463 479 479 531 551 506 506 548 570 540 513 513 467 451 500 499 499 450 450 462 470 470 473 494 476 433 433 429 444 475 469 469 492 532 671 746 746 713 589 529 606 529 476 446 420 420 422 420 424 443 443 420 438 477 517 517 678 609 628 659 659 773 897 921 843 843 719 631 589 569 569 585 631 605 605 585 595 619 672 672 759 -9999 -9999 -9999 -9999 -9999 -9999 -9999 -9999 -9999 -9999 -9999 -9999 -9999 -9999 -9999 -9999 -9999 -9999 -9999 -9999 -9999 -9999 -9999 972 947 860 739 739 632 642 611 624 624 590 590 640 644 644 632 609 667 662 662 626 580 680 763 763 661 632 712 814 814 824 849 773 773 689 686 809 859 859 927 892 834 704 704 678 586 529 506 506 558 552 560 580 580 564 533 464 445 445 474 539 561 581 581 548 562 542 542 583 507 476 476 476 495 475 490 475 475 453 468 458 478 478 440 434 450 491 491 457 442 480 482 482 547 670 574 574 553 677 669 659 659 667 752 785 688 688 683 683 695 736 736 770 653 730 595 595 555 482 421 441 441 433 421 403 355 355 394 373 355 355 355 413 386 410 355 355 355 355 355 355 377 430 456 503 523 450 509 460 458 458 470 391 393 407 407 454 -9999 -9999 -9999 -9999 -9999 -9999 -9999 -9999 -9999 -9999 -9999 -9999 -9999 -9999 -9999 -9999 -9999 -9999 -9999 -9999 -9999 -9999 -9999 -9999 -9999 -9999 -9999 -9999 -9999 -9999 -9999 -9999 -9999 -9999 -9999 -9999 -9999 -9999 -9999 -9999 -9999 -9999 -9999 -9999 -9999 -9999 -9999 -9999 -9999 -9999 -9999 -9999 -9999 -9999 -9999 -9999 -9999 -9999 -9999 -9999 -9999 -9999 -9999 -9999 -9999 -9999 -9999 -9999 -9999 -9999 -9999 -9999 -9999 -9999 -9999 -9999 -9999 -9999 -9999 -9999 -9999 -9999 -9999 -9999 -9999 -9999 -9999 -9999 -9999 -9999 -9999 -9999 -9999 -9999 -9999 -9999 -9999 -9999 -9999 -9999 -9999 -9999 -9999 -9999 -9999 -9999 -9999 -9999 -9999 -9999 -9999 -9999 -9999 -9999 -9999 -9999 -9999 -9999 -9999 -9999 -9999 -9999 -9999 -9999 -9999 -9999 -9999 -9999 -9999 -9999 -9999 -9999 -9999 -9999 -9999 -9999 -9999 -9999 -9999 -9999 -9999 -9999 -9999 -9999 -9999
-9999 -9999 -9999 -9999 -9999 -9999 -9999 -9999 -9999 -9999 -9999 -9999 -9999 -9999 -9999 -9999 -9999 -9999 -9999 -9999 -9999 -9999 -9999 629 629 634 626 614 578 578 549 532 511 511 511 497 497 506 499 499 481 500 477 477 457 455 467 491 491 453 451 462 473 473 515 500 503 508 548 576 560 485 457 457 483 513 458 458 458 450 450 430 459 459 464 465 436 436 429 444 455 455 455 466 492 631 676 676 642 521 529 505 505 486 429 420 420 420 424 420 420 420 420 434 481 591 626 626 559 547 571 659 748 819 839 845 845 736 703 600 590 590 585 585 601 628 628 634 687 683 728 728 -9999 -9999 -9999 -9999 -9999 -9999 -9999 -9999 -9999 -9999 -9999 -9999 -9999 -9999 -9999 -9999 -9999 -9999 -9999 -9999 -9999 -9999 966 966 900 774 694 641 641 603 603 602 590 590 638 691 674 645 645 696 759 715 715 626 559 567 667 667 633 632 742 823 823 824 776 656 682 682 722 803 809 829 829 892 834 755 629 629 581 546 506 506 506 506 560 538 538 493 491 447 445 445 508 551 561 537 537 536 536 538 559 559 536 528 501 475 475 475 475 481 510 510 425 441 459 478 474 426 424 459 459 427 447 444 465 465 547 572 653 661 661 747 784 705 718 718 752 787 721 658 658 658 678 691 703 703 653 598 532 532 480 487 446 403 403 381 381 403 364 364 355 355 355 387 387 439 425 410 355 355 355 355 355 395 395 424 429 503 503 489 491 487 429 429 391 414 471 407 407 433 479 -9999 -9999 -9999 -9999 -9999 -9999 -9999 -9999 -9999 -9999 -9999 -9999 -9999 -9999 -9999 -9999 -9999 -9999 -9999 -9999 -9999 -9999 -9999 -9999 -9999 -9999 -9999 -9999 -9999 -9999 -9999 -9999 -9999 -9999 -9999 -9999 -9999 -9999 -9999 -9999 -9999 -9999 -9999 -9999 -9999 -9999 -9999 -9999 -9999 -9999 -9999 -9999 -9999 -9999 -9999 -9999 -9999 -9999 -9999 -9999 -9999 -9999 -9999 -9999 -9999 -9999 -9999 -9999 -9999 -9999 -9999 -9999 -9999 -9999 -9999 -9999 -9999 -9999 -9999 -9999 -9999 -9999 -9999 -9999 -9999 -9999 -9999 -9999 -9999 -9999 -9999 -9999 -9999 -9999 -9999 -9999 -9999 -9999 -9999 -9999 -9999 -9999 -9999 -9999 -9999 -9999 -9999 -9999 -9999 -9999 -9999 -9999 -9999 -9999 -9999 -9999 -9999 -9999 -9999 -9999 -9999 -9999 -9999 -9999 -9999 -9999 -9999 -9999 -9999 -9999 -9999 -9999 -9999 -9999 -9999 -9999 -9999 -9999 -9999 -9999 -9999 -9999 -9999 -9999
-9999 -9999 -9999 -9999 -9999 -9999 -9999 -9999 -9999 -9999 -9999 -9999 -9999 -9999 -9999 -9999 -9999 -9999 -9999 -9999 -9999 -9999 660 629 629 634 630 612 565 565 560 547 556 555 555 497 505 475 470 470 466 459 459 472 472 454 467 451 451 451 451 451 477 488 488 497 470 508 508 551 550 538 513 513 501 506 511 458 458 488 440 430 454 454 434 469 452 429 429 449 457 467 479 479 544 692 641 513 513 521 514 466 466 466 425 420 420 420 420 420 420 420 420 420 484 490 489 489 502 499 571 626 626 691 711 771 785 785 772 657 644 635 635 619 585 649 649 643 697 706 -9999 -9999 -9999 -9999 -9999 -9999 -9999 -9999 -9999 -9999 -9999 -9999 -9999 -9999 -9999 -9999 -9999 -9999 -9999 -9999 -9999 -9999 -9999 -9999 994 887 887 846 793 673 673 618 609 602 594 594 617 713 703 709 709 771 813 715 691 691 605 531 548 580 580 669 691 735 712 712 670 648 730 730 775 751 744 834 829 916 801 709 614 614 567 526 519 544 544 506 510 532 507 507 500 445 477 522 522 551 547 524 536 536 567 563 580 580 561 556 501 506 506 512 549 489 468 468 463 420 459 475 475 469 420 430 440 440 421 463 465 534 534 620 711 821 820 820 708 653 657 718 640 704 664 658 658 660 695 718 643 703 602 592 548 513 513 451 455 417 412 381 381 363 355 355 355 355 365 389 389 429 425 390 367 367 355 355 356 403 403 406 429 438 441 441 433 447 395 379 379 385 471 496 467 467 481 539 591 -9999 -9999 -9999 -9999 -9999 -9999 -9999 -9999 -9999 -9999 -9999 -9999 -9999 -9999 -9999 -9999 -9999 -9999 -9999 -9999 -9999 -9999 -9999 -9999 -9999 -9999 -9999 -9999 -9999 -9999 -9999 -9999 -9999 -9999 -9999 -9999 -9999 -9999 -9999 -9999 -9999 -9999 -9999 -9999 -9999 -9999 -9999 -9999 -9999 -9999 -9999 -9999 -9999 -9999 -9999 -9999 -9999 -9999 -9999 -9999 -9999 -9999 -9999 -9999 -9999 -9999 -9999 -9999 -9999 -9999 -9999 -9999 -9999 -9999 -9999 -9999 -9999 -9999 -9999 -9999 -9999 -9999 -9999 -9999 -9999 -9999 -9999 -9999 -9999 -9999 -9999 -9999 -9999 -9999 -9999 -9999 -9999 -9999 -9999 -9999 -9999 -9999 -9999 -9999 -9999 -9999 -9999 -9999 -9999 -9999 -9999 -9999 -9999 -9999 -9999 -9999 -9999 -9999 -9999 -9999 -9999 -9999 -9999 -9999 -9999 -9999 -9999 -9999 -9999 -9999 -9999 -9999 -9999 -9999 -9999 -9999 -9999 -9999 -9999 -9999 -9999 -9999
-9999 -9999 -9999 -9999 -9999 -9999 -9999 -9999 -9999 -9999 -9999 -9999 -9999 -9999 -9999 -9999 -9999 -9999 -9999 -9999 -9999 -9999 643 629 618 618 594 568 607 609 609 570 552 517 536 536 513 519 536 504 504 461 461 459 459 454 451 451 455 455 451 451 458 485 485 482 470 494 534 534 603 574 502 532 532 553 511 545 498 498 431 430 430 430 430 443 471 429 429 458 430 433 469 469 576 665 587 476 513 445 479 469 436 436 423 420 420 420 420 420 445 449 493 493 476 476 476 476 476 499 518 566 566 589 605 672 613 613 748 657 644 670 670 637 589 619 604 604 616 633 -9999 -9999 -9999 -9999 -9999 -9999 -9999 -9999 -9999 -9999 -9999 -9999 -9999 -9999 -9999 -9999 -9999 -9999 -9999 -9999 -9999 -9999 1096 1006 1068 976 976 869 772 683 643 643 609 631 594 631 631 632 704 777 810 810 813 712 646 646 598 551 531 580 580 655 720 735 648 648 648 684 749 663 663 649 703 834 878 878 830 719 654 602 602 620 597 551 512 512 462 467 528 528 485 445 462 505 522 539 524 557 561 561 575 577 632 644 561 556 584 542 523 523 499 472 458 460 460 420 447 460 460 449 449 420 420 420 420 463 503 548 548 660 790 825 695 695 626 598 657 608 608 582 545 591 649 649 663 659 643 652 652 665 556 483 483 451 420 419 412 412 390 384 355 355 355 355 355 380 411 429 438 386 372 361 361 355 355 355 404 406 416 415 442 442 420 380 366 391 391 385 424 500 555 555 567 602 -9999 -9999 -9999 -9999 -9999 -9999 -9999 -9999 -9999 -9999 -9999 -9999 -9999 -9999 -9999 -9999 -9999 -9999 -9999 -9999 -9999 -9999 -9999 -9999 -9999 -9999 -9999 -9999 -9999 -9999 -9999 -9999 -9999 -9999 -9999 -9999 -9999 -9999 -9999 -9999 -9999 -9999 -9999 -9999 -9999 -9999 -9999 -9999 -9999 -9999 -9999 -9999 -9999 -9999 -9999 -9999 -9999 -9999 -9999 -9999 -9999 -9999 -9999 -9999 -9999 -9999 -9999 -9999 -9999 -9999 -9999 -9999 -9999 -9999 -9999 -9999 -9999 -9999 -9999 -9999 -9999 -9999 -9999 -9999 -9999 -9999 -9999 -9999 -9999 -9999 -9999 -9999 -9999 -9999 -9999 -9999 -9999 -9999 -9999 -9999 -9999 -9999 -9999 -9999 -9999 -9999 -9999 -9999 -9999 -9999 -9999 -9999 -9999 -9999 -9999 -9999 -9999 -9999 -9999 -9999 -9999 -9999 -9999 -9999 -9999 -9999 -9999 -9999 -9999 -9999 -9999 -9999 -9999 -9999 -9999 -9999 -9999 -9999 -9999 -9999 -9999 -9999 -9999
-9999 -9999 -9999 -9999 -9999 -9999 -9999 -9999 -9999 -9999 -9999 -9999 -9999 -9999 -9999 -9999 -9999 -9999 -9999 -9999 -9999 650 643 629 640 640 657 608 650 603 603 595 539 517 494 494 498 521 510 498 498 489 467 466 455 455 464 478 484 471 471 451 469 477 482 482 470 473 530 530 532 480 487 486 486 553 554 483 460 460 437 459 430 430 430 430 471 451 426 426 438 433 461 518 518 623 587 476 429 429 451 421 420 420 420 420 420 420 420 420 420 457 474 474 507 478 476 476 476 476 481 492 539 539 509 542 567 625 748 679 654 643 610 610 625 604 643 643 718 633 692 -9999 -9999 -9999 -9999 -9999 -9999 -9999 -9999 -9999 -9999 -9999 -9999 -9999 -9999 -9999 -9999 -9999 -9999 -9999 -9999 -9999 -9999 -9999 1015 860 779 779 707 662 614 643 625 614 616 629 629 675 643 778 918 810 879 761 637 595 595 650 607 531 531 531 720 587 584 673 673 731 645 575 649 649 703 831 852 852 829 756 710 661 661 665 597 551 498 498 497 455 491 519 519 445 501 505 536 536 524 545 591 592 592 623 620 644 644 580 536 572 561 561 504 458 483 457 460 420 431 462 425 425 425 423 419 440 420 441 496 554 674 674 798 769 695 638 626 598 598 583 583 524 556 634 631 631 623 659 628 573 573 574 558 474 437 437 411 419 389 417 417 403 382 355 355 355 355 380 411 411 403 417 392 355 355 355 357 361 404 404 382 419 448 427 427 355 375 455 420 420 443 454 513 524 524 594 -9999 -9999 -9999 -9999 -9999 -9999 -9999 -9999 -9999 -9999 -9999 -9999 -9999 -9999 -9999 -9999 -9999 -9999 -9999 -9999 -9999 -9999 -9999 -9999 -9999 -9999 -9999 -9999 -9999 -9999 -9999 -9999 -9999 -9999 -9999 -9999 -9999 -9999 -9999 -9999 -9999 -9999 -9999 -9999 -9999 -9999 -9999 -9999 -9999 -9999 -9999 -9999 -9999 -9999 -9999 -9999 -9999 -9999 -9999 -9999 -9999 -9999 -9999 -9999 -9999 -9999 -9999 -9999 -9999 -9999 -9999 -9999 -9999 -9999 -9999 -9999 -9999 -9999 -9999 -9999 -9999 -9999 -9999 -9999 -9999 -9999 -9999 -9999 -9999 -9999 -9999 -9999 -9999 -9999 -9999 -9999 -9999 -9999 -9999 -9999 -9999 -9999 -9999 -9999 -9999 -9999 -9999 -9999 -9999 -9999 -9999 -9999 -9999 -9999 -9999 -9999 -9999 -9999 -9999 -9999 -9999 -9999 -9999 -9999 -9999 -9999 -9999 -9999 -9999 -9999 -9999 -9999 -9999 -9999 -9999 -9999 -9999 -9999 -9999 -9999 -9999 -9999 -9999
-9999 -9999 -9999 -9999 -9999 -9999 -9999 -9999 -9999 -9999 -9999 -9999 -9999 -9999 -9999 -9999 -9999 -9999 -9999 -9999 647 650 620 613 644 661 661 653 675 622 586 586 539 513 528 487 487 478 473 474 467 467 501 466 474 474 488 515 521 479 479 475 451 477 476 476 451 451 451 474 474 457 469 467 537 537 538 475 502 479 479 476 434 436 436 430 458 435 420 420 420 445 443 472 472 623 529 450 431 431 420 420 420 420 420 420 420 420 436 436 438 438 456 492 492 519 501 476 476 476 476 498 503 503 519 577 573 625 625 667 643 643 633 633 684 707 703 739 718 708 -9999 -9999 -9999 -9999 -9999 -9999 -9999 -9999 -9999 -9999 -9999 -9999 -9999 -9999 -9999 -9999 -9999 -9999 -9999 -9999 -9999 -9999 -9999 -9999 980 818 718 718 674 662 614 614 614 614 645 664 720 720 653 731 918 825 825 702 685 697 697 714 688 609 531 531 610 588 528 581 581 635 594 545 676 649 741 812 779 751 751 734 718 673 591 665 623 517 470 455 455 455 498 473 473 445 501 560 586 586 521 550 569 564 564 583 620 563 565 565 522 541 575 530 530 513 530 457 421 421 420 429 432 427 427 432 419 440 440 453 493 612 686 686 740 663 673 638 638 566 565 539 508 508 564 628 580 660 623 586 590 513 565 565 525 502 446 446 411 411 368 368 368 375 355 355 364 364 355 356 355 415 415 390 378 355 355 355 355 361 387 355 355 423 456 381 355 355 419 455 450 450 470 509 510 496 496 537 -9999 -9999 -9999 -9999 -9999 -9999 -9999 -9999 -9999 -9999 -9999 -9999 -9999 -9999 -9999 -9999 -9999 -9999 -9999 -9999 -9999 -9999 -9999 -9999 -9999 -9999 -9999 -9999 -9999 -9999 -9999 -9999 -9999 -9999 -9999 -9999 -9999 -9999 -9999 -9999 -9999 -9999 -9999 -9999 -9999 -9999 -9999 -9999 -9999 -9999 -9999 -9999 -9999 -9999 -9999 -9999 -9999 -9999 -9999 -9999 -9999 -9999 -9999 -9999 -9999 -9999 -9999 -9999 -9999 -9999 -9999 -9999 -9999 -9999 -9999 -9999 -9999 -9999 -9999 -9999 -9999 -9999 -9999 -9999 -9999 -9999 -9999 -9999 -9999 -9999 -9999 -9999 -9999 -9999 -9999 -9999 -9999 -9999 -9999 -9999 -9999 -9999 -9999 -9999 -9999 -9999 -9999 -9999 -9999 -9999 -9999 -9999 -9999 -9999 -9999 -9999 -9999 -9999 -9999 -9999 -9999 -9999 -9999 -9999 -9999 -9999 -9999 -9999 -9999 -9999 -9999 -9999 -9999 -9999 -9999 -9999 -9999 -9999 -9999 -9999 -9999 -9999 -9999
-9999 -9999 -9999 -9999 -9999 -9999 -9999 -9999 -9999 -9999 -9999 -9999 -9999 -9999 -9999 -9999 -9999 -9999 -9999 706 647 616 616 595 637 633 623 623 597 607 559 586 537 518 493 484 484 519 508 473 484 467 501 482 483 498 498 530 578 531 475 475 451 451 451 451 451 451 469 441 441 441 436 467 530 530 562 573 523 560 560 480 449 436 436 436 430 441 420 420 420 428 452 437 543 543 480 423 420 420 420 420 420 420 426 420 421 433 451 451 468 503 507 501 501 519 501 488 506 506 541 535 531 570 570 627 573 612 664 664 704 663 708 729 729 778 -9999 -9999 -9999 -9999 -9999 -9999 -9999 -9999 -9999 -9999 -9999 -9999 -9999 -9999 -9999 -9999 -9999 -9999 -9999 -9999 -9999 -9999 -9999 -9999 -9999 -9999 -9999 -9999 855 763 716 661 674 638 671 628 628 654 689 708 747 747 685 731 852 866 866 725 755 826 817 817 714 609 531 537 537 528 542 518 510 510 508 615 676 711 711 709 704 758 758 701 666 698 591 591 557 486 483 464 464 455 478 478 445 445 488 506 535 556 556 507 515 531 611 583 566 534 519 494 494 531 547 491 491 513 530 471 449 449 420 420 440 419 419 419 419 419 441 441 511 617 598 588 588 614 673 586 560 560 499 478 549 549 628 601 566 660 660 600 516 508 533 533 504 454 468 459 459 419 390 374 355 355 398 357 373 355 355 355 388 389 398 398 401 375 363 363 355 355 355 356 356 403 359 355 402 402 419 478 452 488 488 492 470 485 547 547 -9999 -9999 -9999 -9999 -9999 -9999 -9999 -9999 -9999 -9999 -9999 -9999 -9999 -9999 -9999 -9999 -9999 -9999 -9999 -9999 -9999 -9999 -9999 -9999 -9999 -9999 -9999 -9999 -9999 -9999 -9999 -9999 -9999 -9999 -9999 -9999 -9999 -9999 -9999 -9999 -9999 -9999 -9999 -9999 -9999 -9999 -9999 -9999 -9999 -9999 -9999 -9999 -9999 -9999 -9999 -9999 -9999 -9999 -9999 -9999 -9999 -9999 -9999 -9999 -9999 -9999 -9999 -9999 -9999 -9999 -9999 -9999 -9999 -9999 -9999 -9999 -9999 -9999 -9999 -9999 -9999 -9999 -9999 -9999 -9999 -9999 -9999 -9999 -9999 -9999 -9999 -9999 -9999 -9999 -9999 -9999 -9999 -9999 -9999 -9999 -9999 -9999 -9999 -9999 -9999 -9999 -9999 -9999 -9999 -9999 -9999 -9999 -9999 -9999 -9999 -9999 -9999 -9999 -9999 -9999 -9999 -9999 -9999 -9999 -9999 -9999 -9999 -9999 -9999 -9999 -9999 -9999 -9999 -9999 -9999 -9999 -9999 -9999 -9999 -9999 -9999 -9999 -9999
-9999 -9999 -9999 -9999 -9999 -9999 -9999 -9999 -9999 -9999 -9999 -9999 -9999 -9999 -9999 -9999 -9999 -9999 839 706 661 643 643 598 595 581 594 594 567 607 559 523 523 515 491 493 539 539 513 516 484 505 505 515 492 542 542 603 543 553 511 475 454 465 465 521 521 476 503 469 465 465 436 485 518 535 535 552 551 557 500 500 449 472 446 423 423 462 448 420 420 420 428 437 494 494 440 425 420 420 420 420 420 420 426 426 424 441 482 515 515 563 593 585 542 542 529 526 532 562 562 590 585 691 691 627 644 642 695 695 773 768 782 -9999 -9999 -9999 -9999 -9999 -9999 -9999 -9999 -9999 -9999 -9999 -9999 -9999 -9999 -9999 -9999 -9999 -9999 -9999 -9999 -9999 -9999 -9999 -9999 -9999 -9999 -9999 -9999 -9999 -9999 -9999 -9999 795 735 661 661 716 672 628 637 637 712 759 789 769 685 764 876 838 875 875 883 870 707 639 714 574 531 554 554 518 534 510 531 531 492 615 676 644 644 637 648 718 646 646 639 698 654 601 601 517 489 443 428 428 437 454 445 445 457 473 500 488 488 533 564 580 611 611 546 521 495 492 492 532 527 508 478 478 483 444 451 420 420 420 449 429 419 419 419 425 481 481 628 631 547 518 518 614 581 608 562 562 528 458 580 585 585 601 566 601 598 598 564 502 514 496 496 463 468 462 460 460 432 405 409 409 414 404 373 355 355 355 360 402 443 443 404 397 363 355 355 378 355 381 355 355 374 355 355 366 366 377 427 439 439 463 498 531 548 547 -9999 -9999 -9999 -9999 -9999 -9999 -9999 -9999 -9999 -9999 -9999 -9999 -9999 -9999 -9999 -9999 -9999 -9999 -9999 -9999 -9999 -9999 -9999 -9999 -9999 -9999 -9999 -9999 -9999 -9999 -9999 -9999 -9999 -9999 -9999 -9999 -9999 -9999 -9999 -9999 -9999 -9999 -9999 -9999 -9999 -9999 -9999 -9999 -9999 -9999 -9999 -9999 -9999 -9999 -9999 -9999 -9999 -9999 -9999 -9999 -9999 -9999 -9999 -9999 -9999 -9999 -9999 -9999 -9999 -9999 -9999 -9999 -9999 -9999 -9999 -9999 -9999 -9999 -9999 -9999 -9999 -9999 -9999 -9999 -9999 -9999 -9999 -9999 -9999 -9999 -9999 -9999 -9999 -9999 -9999 -9999 -9999 -9999 -9999 -9999 -9999 -9999 -9999 -9999 -9999 -9999 -9999 -9999 -9999 -9999 -9999 -9999 -9999 -9999 -9999 -9999 -9999 -9999 -9999 -9999 -9999 -9999 -9999 -9999 -9999 -9999 -9999 -9999 -9999 -9999 -9999 -9999 -9999 -9999 -9999 -9999 -9999 -9999 -9999 -9999 -9999 -9999 -9999
-9999 -9999 -9999 -9999 -9999 -9999 -9999 -9999 -9999 -9999 -9999 -9999 -9999 -9999 -9999 -9999 -9999 839 839 752 676 679 645 645 606 592 556 553 567 581 608 587 587 524 495 544 553 553 525 516 512 546 546 536 540 545 620 620 578 590 511 491 491 510 508 533 529 529 500 469 465 435 435 436 507 514 514 524 491 550 532 500 470 444 420 429 429 443 434 421 420 420 428 445 458 425 425 420 420 420 420 420 420 420 425 461 461 503 544 618 618 615 615 585 598 598 644 625 609 573 573 609 681 788 691 691 688 691 709 -9999 -9999 -9999 -9999 -9999 -9999 -9999 -9999 -9999 -9999 -9999 -9999 -9999 -9999 -9999 -9999 -9999 -9999 -9999 -9999 -9999 -9999 -9999 -9999 -9999 -9999 -9999 -9999 -9999 -9999 -9999 -9999 -9999 -9999 -9999 -9999 806 735 721 691 691 656 628 636 636 700 804 789 769 769 771 838 905 905 905 862 808 682 639 639 542 531 531 511 511 511 510 523 492 492 555 595 527 571 571 574 681 637 637 639 704 697 583 583 484 458 470 421 421 437 454 465 427 427 447 498 488 542 542 538 580 637 547 547 520 492 492 508 508 501 508 482 482 440 433 448 436 436 420 420 419 419 419 419 463 548 600 600 540 492 492 545 545 570 516 539 486 486 426 544 534 563 563 542 569 541 541 558 474 437 472 472 463 429 485 429 429 453 426 458 450 450 404 408 355 355 355 355 407 450 428 428 397 424 394 394 383 355 355 355 355 355 355 355 363 363 374 451 518 513 513 538 586 548 537 537 554 -9999 -9999 -9999 -9999 -9999 -9999 -9999 -9999 -9999 -9999 -9999 -9999 -9999 -9999 -9999 -9999 -9999 -9999 -9999 -9999 -9999 -9999 -9999 -9999 -9999 -9999 -9999 -9999 -9999 -9999 -9999 -9999 -9999 -9999 -9999 -9999 -9999 -9999 -9999 -9999 -9999 -9999 -9999 -9999 -9999 -9999 -9999 -9999 -9999 -9999 -9999 -9999 -9999 -9999 -9999 -9999 -9999 -9999 -9999 -9999 -9999 -9999 -9999 -9999 -9999 -9999 -9999 -9999 -9999 -9999 -9999 -9999 -9999 -9999 -9999 -9999 -9999 -9999 -9999 -9999 -9999 -9999 -9999 -9999 -9999 -9999 -9999 -9999 -9999 -9999 -9999 -9999 -9999 -9999 -9999 -9999 -9999 -9999 -9999 -9999 -9999 -9999 -9999 -9999 -9999 -9999 -9999 -9999 -9999 -9999 -9999 -9999 -9999 -9999 -9999 -9999 -9999 -9999 -9999 -9999 -9999 -9999 -9999 -9999 -9999 -9999 -9999 -9999 -9999 -9999 -9999 -9999 -9999 -9999 -9999 -9999 -9999 -9999 -9999 -9999 -9999
-9999 -9999 -9999 -9999 -9999 -9999 -9999 -9999 -9999 -9999 -9999 -9999 -9999 -9999 -9999 -9999 -9999 848 848 784 700 753 703 703 634 624 579 553 553 553 596 553 553 553 517 569 582 526 525 542 541 588 593 593 602 597 627 627 652 590 548 506 506 529 550 507 497 497 471 469 464 435 435 435 492 467 455 455 478 489 532 505 505 452 420 420 420 420 420 420 420 420 420 429 426 420 420 420 420 420 420 420 420 420 451 483 483 555 608 630 679 679 615 619 651 681 681 673 606 625 671 671 753 788 813 813 790 741 -9999 -9999 -9999 -9999 -9999 -9999 -9999 -9999 -9999 -9999 -9999 -9999 -9999 -9999 -9999 -9999 -9999 -9999 -9999 -9999 -9999 -9999 -9999 -9999 -9999 -9999 -9999 -9999 -9999 -9999 -9999 -9999 -9999 -9999 -9999 -9999 -9999 806 774 737 729 729 703 641 645 710 710 804 829 871 876 876 882 905 834 778 778 666 682 577 577 577 577 534 513 513 511 510 523 510 510 492 495 473 558 558 568 658 601 628 628 642 681 604 476 476 453 435 421 440 440 471 439 420 442 442 488 511 522 522 538 558 626 588 588 551 524 492 523 523 501 516 523 479 479 433 433 433 433 433 420 419 419 427 427 484 468 533 533 513 492 492 526 526 582 503 475 411 411 464 499 534 478 478 477 517 493 586 586 523 473 429 447 447 428 470 410 428 428 411 463 427 450 418 429 355 355 355 355 405 481 476 428 463 445 385 355 355 355 395 357 388 355 355 405 469 408 408 468 455 506 512 512 586 592 541 541 501 -9999 -9999 -9999 -9999 -9999 -9999 -9999 -9999 -9999 -9999 -9999 -9999 -9999 -9999 -9999 -9999 -9999 -9999 -9999 -9999 -9999 -9999 -9999 -9999 -9999 -9999 -9999 -9999 -9999 -9999 -9999 -9999 -9999 -9999 -9999 -9999 -9999 -9999 -9999 -9999 -9999 -9999 -9999 -9999 -9999 -9999 -9999 -9999 -9999 -9999 -9999 -9999 -9999 -9999 -9999 -9999 -9999 -9999 -9999 -9999 -9999 -9999 -9999 -9999 -9999 -9999 -9999 -9999 -9999 -9999 -9999 -9999 -9999 -9999 -9999 -9999 -9999 -9999 -9999 -9999 -9999 -9999 -9999 -9999 -9999 -9999 -9999 -9999 -9999 -9999 -9999 -9999 -9999 -9999 -9999 -9999 -9999 -9999 -9999 -9999 -9999 -9999 -9999 -9999 -9999 -9999 -9999 -9999 -9999 -9999 -9999 -9999 -9999 -9999 -9999 -9999 -9999 -9999 -9999 -9999 -9999 -9999 -9999 -9999 -9999 -9999 -9999 -9999 -9999 -9999 -9999 -9999 -9999 -9999 -9999 -9999 -9999 -9999 -9999 -9999 -9999
-9999 -9999 -9999 -9999 -9999 -9999 -9999 -9999 -9999 -9999 -9999 -9999 -9999 -9999 -9999 -9999 -9999 883 767 767 772 772 684 636 636 579 579 586 553 553 553 566 571 571 526 579 618 526 526 551 602 643 625 625 645 694 689 652 652 570 553 569 538 538 510 502 478 480 471 472 449 435 435 435 438 452 498 498 500 489 524 457 457 431 437 433 420 420 420 420 420 420 420 420 420 420 420 420 420 420 420 420 420 427 476 498 596 596 570 665 721 679 694 682 672 702 702 680 705 740 765 671 753 803 839 869 869 822 -9999 -9999 -9999 -9999 -9999 -9999 -9999 -9999 -9999 -9999 -9999 -9999 -9999 -9999 -9999 -9999 -9999 -9999 -9999 -9999 -9999 -9999 -9999 -9999 -9999 -9999 -9999 -9999 -9999 -9999 -9999 -9999 -9999 -9999 -9999 -9999 -9999 835 803 804 774 695 695 701 707 783 846 846 881 887 908 908 887 839 743 673 673 666 633 577 598 598 604 578 595 591 591 510 567 519 516 516 492 473 559 594 594 635 601 608 599 599 594 573 486 486 456 444 421 426 426 463 421 420 457 457 448 484 492 557 557 598 597 549 563 563 548 491 499 490 490 502 524 448 448 434 485 489 510 433 464 482 421 415 415 418 492 459 441 441 492 449 520 543 543 504 475 402 455 455 499 508 438 445 445 443 515 537 537 522 473 429 418 418 401 459 418 410 410 409 399 427 355 355 396 419 364 355 355 411 477 476 504 504 418 355 355 367 367 414 428 388 388 410 438 495 489 489 493 504 518 523 512 528 544 519 471 471 503 -9999 -9999 -9999 -9999 -9999 -9999 -9999 -9999 -9999 -9999 -9999 -9999 -9999 -9999 -9999 -9999 -9999 -9999 -9999 -9999 -9999 -9999 -9999 -9999 -9999 -9999 -9999 -9999 -9999 -9999 -9999 -9999 -9999 -9999 -9999 -9999 -9999 -9999 -9999 -9999 -9999 -9999 -9999 -9999 -9999 -9999 -9999 -9999 -9999 -9999 -9999 -9999 -9999 -9999 -9999 -9999 -9999 -9999 -9999 -9999 -9999 -9999 -9999 -9999 -9999 -9999 -9999 -9999 -9999 -9999 -9999 -9999 -9999 -9999 -9999 -9999 -9999 -9999 -9999 -9999 -9999 -9999 -9999 -9999 -9999 -9999 -9999 -9999 -9999 -9999 -9999 -9999 -9999 -9999 -9999 -9999 -9999 -9999 -9999 -9999 -9999 -9999 -9999 -9999 -9999 -9999 -9999 -9999 -9999 -9999 -9999 -9999 -9999 -9999 -9999 -9999 -9999 -9999 -9999 -9999 -9999 -9999 -9999 -9999 -9999 -9999 -9999 -9999 -9999 -9999 -9999 -9999 -9999 -9999 -9999 -9999 -9999 -9999 -9999 -9999
-9999 -9999 -9999 -9999 -9999 -9999 -9999 -9999 -9999 -9999 -9999 -9999 -9999 -9999 -9999 -9999 932 848 809 809 736 694 657 590 590 579 579 595 614 614 641 606 601 559 559 600 618 588 603 603 632 714 702 698 698 731 689 640 640 630 630 593 531 531 518 478 478 480 480 457 444 435 435 435 455 444 458 471 500 498 528 474 459 459 447 432 420 439 420 420 422 420 420 420 420 420 437 437 420 420 420 426 426 420 447 473 486 486 522 536 721 644 644 638 700 802 777 777 788 831 765 852 852 819 852 901 -9999 -9999 -9999 -9999 -9999 -9999 -9999 -9999 -9999 -9999 -9999 -9999 -9999 -9999 -9999 -9999 -9999 -9999 -9999 -9999 -9999 -9999 -9999 -9999 -9999 -9999 -9999 -9999 -9999 -9999 -9999 -9999 -9999 -9999 -9999 -9999 -9999 -9999 -9999 860 914 841 734 706 706 750 783 783 873 873 925 890 833 772 772 755 722 698 642 642 666 611 604 646 646 658 635 689 591 596 591 617 582 582 575 473 516 482 594 635 551 602 573 573 595 509 546 478 478 444 429 421 422 422 420 420 459 436 436 484 492 571 571 547 555 539 571 571 538 469 499 501 501 482 501 471 462 462 529 590 510 554 554 537 496 462 415 415 412 412 442 449 449 449 465 536 536 488 467 397 459 455 470 500 460 434 434 439 493 471 462 522 489 463 395 401 401 426 417 395 395 395 399 402 355 355 355 386 365 355 355 426 477 454 373 373 363 355 355 368 368 412 428 480 493 493 473 470 485 482 482 480 518 523 468 468 495 519 453 453 476 534 -9999 -9999 -9999 -9999 -9999 -9999 -9999 -9999 -9999 -9999 -9999 -9999 -9999 -9999 -9999 -9999 -9999 -9999 -9999 -9999 -9999 -9999 -9999 -9999 -9999 -9999 -9999 -9999 -9999 -9999 -9999 -9999 -9999 -9999 -9999 -9999 -9999 -9999 -9999 -9999 -9999 -9999 -9999 -9999 -9999 -9999 -9999 -9999 -9999 -9999 -9999 -9999 -9999 -9999 -9999 -9999 -9999 -9999 -9999 -9999 -9999 -9999 -9999 -9999 -9999 -9999 -9999 -9999 -9999 -9999 -9999 -9999 -9999 -9999 -9999 -9999 -9999 -9999 -9999 -9999 -9999 -9999 -9999 -9999 -9999 -9999 -9999 -9999 -9999 -9999 -9999 -9999 -9999 -9999 -9999 -9999 -9999 -9999 -9999 -9999 -9999 -9999 -9999 -9999 -9999 -9999 -9999 -9999 -9999 -9999 -9999 -9999 -9999 -9999 -9999 -9999 -9999 -9999 -9999 -9999 -9999 -9999 -9999 -9999 -9999 -9999 -9999 -9999 -9999 -9999 -9999 -9999 -9999 -9999 -9999 -9999 -9999 -9999 -9999
-9999 -9999 -9999 -9999 -9999 -9999 -9999 -9999 -9999 -9999 -9999 -9999 -9999 -9999 -9999 -9999 915 888 802 741 741 663 616 621 643 643 694 644 681 684 684 655 687 613 559 600 657 619 624 624 665 732 713 684 684 731 706 677 662 662 633 585 531 538 538 484 478 453 466 466 446 435 435 435 435 435 458 471 471 465 495 477 430 430 424 420 434 439 439 429 420 420 420 420 420 420 420 420 420 432 430 466 496 496 499 528 499 507 522 536 578 592 592 661 757 844 865 865 879 831 897 912 912 -9999 -9999 -9999 -9999 -9999 -9999 -9999 -9999 -9999 -9999 -9999 -9999 -9999 -9999 -9999 -9999 -9999 -9999 -9999 -9999 -9999 -9999 -9999 -9999 -9999 -9999 -9999 -9999 -9999 -9999 -9999 -9999 -9999 -9999 -9999 -9999 -9999 -9999 -9999 -9999 -9999 -9999 -9999 -9999 884 784 787 828 828 783 809 892 831 831 805 771 768 768 798 722 698 724 724 674 698 741 729 729 759 683 689 706 706 669 692 683 561 561 477 469 482 517 517 530 601 576 538 538 471 536 535 478 499 455 434 420 420 420 420 420 450 436 488 480 532 512 512 521 539 554 497 497 469 498 497 468 468 494 495 544 612 612 590 557 624 624 569 522 497 441 441 412 412 442 449 449 426 438 478 440 440 427 397 459 441 441 469 457 413 419 419 453 457 462 462 460 455 411 395 395 395 395 395 395 395 361 382 355 355 355 355 355 365 407 426 403 398 368 355 355 355 355 356 394 412 430 462 459 459 402 422 462 396 396 480 505 510 467 467 480 455 441 482 482 481 530 -9999 -9999 -9999 -9999 -9999 -9999 -9999 -9999 -9999 -9999 -9999 -9999 -9999 -9999 -9999 -9999 -9999 -9999 -9999 -9999 -9999 -9999 -9999 -9999 -9999 -9999 -9999 -9999 -9999 -9999 -9999 -9999 -9999 -9999 -9999 -9999 -9999 -9999 -9999 -9999 -9999 -9999 -9999 -9999 -9999 -9999 -9999 -9999 -9999 -9999 -9999 -9999 -9999 -9999 -9999 -9999 -9999 -9999 -9999 -9999 -9999 -9999 -9999 -9999 -9999 -9999 -9999 -9999 -9999 -9999 -9999 -9999 -9999 -9999 -9999 -9999 -9999 -9999 -9999 -9999 -9999 -9999 -9999 -9999 -9999 -9999 -9999 -9999 -9999 -9999 -9999 -9999 -9999 -9999 -9999 -9999 -9999 -9999 -9999 -9999 -9999 -9999 -9999 -9999 -9999 -9999 -9999 -9999 -9999 -9999 -9999 -9999 -9999 -9999 -9999 -9999 -9999 -9999 -9999 -9999 -9999 -9999 -9999 -9999 -9999 -9999 -9999 -9999 -9999 -9999 -9999 -9999 -9999 -9999 -9999 -9999 -9999 -9999
-9999 -9999 -9999 -9999 -9999 -9999 -9999 -9999 -9999 -9999 -9999 -9999 -9999 968 976 976 953 892 766 718 718 630 616 621 667 667 745 778 749 744 744 756 723 613 579 579 641 656 672 681 681 701 674 606 692 692 668 599 591 591 645 601 535 536 536 484 453 458 440 440 436 435 435 467 467 435 435 447 445 445 479 444 420 420 420 420 434 451 437 437 420 420 420 422 422 420 420 420 420 422 478 486 532 532 571 592 576 507 507 549 589 649 729 729 803 933 -9999 934 879 907 -9999 -9999 -9999 -9999 -9999 -9999 -9999 -9999 -9999 -9999 -9999 -9999 -9999 -9999 -9999 -9999 -9999 -9999 -9999 -9999 -9999 -9999 -9999 -9999 -9999 -9999 -9999 -9999 -9999 -9999 -9999 -9999 -9999 -9999 -9999 -9999 -9999 -9999 -9999 -9999 -9999 -9999 -9999 -9999 -9999 -9999 -9999 893 894 856 958 828 836 904 862 800 800 800 807 794 828 798 777 771 705 690 690 731 820 815 848 848 683 721 772 727 727 729 694 625 625 519 469 463 481 481 472 529 619 504 504 459 479 535 485 485 459 428 420 420 420 420 446 450 480 480 487 513 500 500 497 516 535 507 497 475 459 487 468 468 498 520 594 646 612 616 610 551 521 521 473 441 441 463 412 436 417 408 435 435 408 414 399 399 465 397 428 430 430 423 433 387 387 387 399 457 496 477 477 417 421 444 395 395 395 395 373 368 368 355 361 359 386 386 414 434 407 407 381 355 355 355 355 355 355 355 394 394 387 416 388 355 355 355 389 389 413 413 464 509 444 457 457 413 409 423 482 481 514 -9999 -9999 -9999 -9999 -9999 -9999 -9999 -9999 -9999 -9999 -9999 -9999 -9999 -9999 -9999 -9999 -9999 -9999 -9999 -9999 -9999 -9999 -9999 -9999 -9999 -9999 -9999 -9999 -9999 -9999 -9999 -9999 -9999 -9999 -9999 -9999 -9999 -9999 -9999 -9999 -9999 -9999 -9999 -9999 -9999 -9999 -9999 -9999 -9999 -9999 -9999 -9999 -9999 -9999 -9999 -9999 -9999 -9999 -9999 -9999 -9999 -9999 -9999 -9999 -9999 -9999 -9999 -9999 -9999 -9999 -9999 -9999 -9999 -9999 -9999 -9999 -9999 -9999 -9999 -9999 -9999 -9999 -9999 -9999 -9999 -9999 -9999 -9999 -9999 -9999 -9999 -9999 -9999 -9999 -9999 -9999 -9999 -9999 -9999 -9999 -9999 -9999 -9999 -9999 -9999 -9999 -9999 -9999 -9999 -9999 -9999 -9999 -9999 -9999 -9999 -9999 -9999 -9999 -9999 -9999 -9999 -9999 -9999 -9999 -9999 -9999 -9999 -9999 -9999 -9999 -9999 -9999 -9999 -9999 -9999 -9999 -9999 -9999
-9999 -9999 -9999 -9999 -9999 -9999 -9999 -9999 -9999 -9999 -9999 -9999 -9999 973 903 840 840 845 791 718 726 630 679 689 701 805 805 868 831 813 757 757 723 629 623 623 702 760 729 717 717 720 661 606 634 634 601 574 552 559 559 589 577 536 509 509 490 476 459 465 465 440 469 521 476 476 450 431 433 433 444 425 427 459 459 420 444 447 428 428 420 420 420 433 433 420 420 420 424 424 444 500 532 555 555 585 576 591 549 549 604 644 720 720 823 895 -9999 -9999 -9999 -9999 -9999 -9999 -9999 -9999 -9999 -9999 -9999 -9999 -9999 -9999 -9999 -9999 -9999 -9999 -9999 -9999 -9999 -9999 -9999 -9999 -9999 -9999 -9999 -9999 -9999 -9999 -9999 -9999 -9999 -9999 -9999 -9999 -9999 -9999 -9999 -9999 -9999 -9999 -9999 -9999 -9999 -9999 -9999 -9999 -9999 -9999 -9999 -9999 -9999 981 958 937 937 881 800 830 866 866 886 882 828 828 852 815 757 781 781 763 815 896 917 848 803 797 752 714 714 628 725 686 608 519 537 502 463 463 463 540 609 499 448 448 479 500 542 542 487 479 447 420 420 420 446 494 457 457 482 489 530 483 483 492 535 507 511 511 462 459 486 534 534 565 591 646 605 605 560 511 467 467 441 460 477 463 463 412 408 408 408 408 413 399 400 399 465 430 387 452 389 389 387 387 395 387 399 412 405 447 456 456 450 453 405 405 395 387 355 355 355 370 411 416 434 434 414 434 391 361 361 360 356 378 357 357 355 355 355 355 355 355 355 412 412 382 399 389 389 389 405 441 400 400 400 401 489 423 495 495 537 612 -9999 -9999 -9999 -9999 -9999 -9999 -9999 -9999 -9999 -9999 -9999 -9999 -9999 -9999 -9999 -9999 -9999 -9999 -9999 -9999 -9999 -9999 -9999 -9999 -9999 -9999 -9999 -9999 -9999 -9999 -9999 -9999 -9999 -9999 -9999 -9999 -9999 -9999 -9999 -9999 -9999 -9999 -9999 -9999 -9999 -9999 -9999 -9999 -9999 -9999 -9999 -9999 -9999 -9999 -9999 -9999 -9999 -9999 -9999 -9999 -9999 -9999 -9999 -9999 -9999 -9999 -9999 -9999 -9999 -9999 -9999 -9999 -9999 -9999 -9999 -9999 -9999 -9999 -9999 -9999 -9999 -9999 -9999 -9999 -9999 -9999 -9999 -9999 -9999 -9999 -9999 -9999 -9999 -9999 -9999 -9999 -9999 -9999 -9999 -9999 -9999 -9999 -9999 -9999 -9999 -9999 -9999 -9999 -9999 -9999 -9999 -9999 -9999 -9999 -9999 -9999 -9999 -9999 -9999 -9999 -9999 -9999 -9999 -9999 -9999 -9999 -9999 -9999 -9999 -9999 -9999 -9999 -9999 -9999 -9999 -9999 -9999
-9999 -9999 -9999 -9999 -9999 -9999 -9999 -9999 -9999 -9999 -9999 -9999 -9999 1055 964 846 846 775 742 718 726 726 710 784 802 844 844 970 882 788 771 757 683 686 739 783 783 782 762 666 688 688 661 593 561 572 572 550 512 513 573 573 577 560 501 501 482 506 472 443 443 440 475 521 529 529 501 459 431 425 425 427 425 474 428 428 460 446 436 420 420 420 420 437 420 420 420 426 491 491 482 566 581 589 589 585 623 662 596 596 587 672 799 902 902 905 -9999 -9999 -9999 -9999 -9999 -9999 -9999 -9999 -9999 -9999 -9999 -9999 -9999 -9999 -9999 -9999 -9999 -9999 -9999 -9999 -9999 -9999 -9999 -9999 -9999 -9999 -9999 -9999 -9999 -9999 -9999 -9999 -9999 -9999 -9999 -9999 -9999 -9999 -9999 -9999 -9999 -9999 -9999 -9999 -9999 -9999 -9999 -9999 -9999 -9999 -9999 -9999 -9999 -9999 -9999 948 948 884 821 899 957 957 925 882 890 906 906 833 850 858 853 853 878 896 917 851 851 734 676 644 598 598 614 631 608 608 574 591 514 463 463 540 580 506 448 448 468 476 480 503 503 493 498 420 420 420 445 455 475 476 476 501 511 504 473 492 501 486 497 497 488 459 498 485 485 522 591 602 569 569 575 488 479 501 501 531 477 478 432 432 447 476 471 465 465 445 400 399 399 442 387 407 387 387 405 427 437 387 387 387 373 429 436 436 401 400 411 377 377 369 355 360 407 407 445 441 480 489 489 445 400 427 427 359 394 381 365 365 355 355 355 411 411 401 356 370 377 377 399 422 437 400 400 400 400 461 462 462 489 461 494 557 557 623 -9999 -9999 -9999 -9999 -9999 -9999 -9999 -9999 -9999 -9999 -9999 -9999 -9999 -9999 -9999 -9999 -9999 -9999 -9999 -9999 -9999 -9999 -9999 -9999 -9999 -9999 -9999 -9999 -9999 -9999 -9999 -9999 -9999 -9999 -9999 -9999 -9999 -9999 -9999 -9999 -9999 -9999 -9999 -9999 -9999 -9999 -9999 -9999 -9999 -9999 -9999 -9999 -9999 -9999 -9999 -9999 -9999 -9999 -9999 -9999 -9999 -9999 -9999 -9999 -9999 -9999 -9999 -9999 -9999 -9999 -9999 -9999 -9999 -9999 -9999 -9999 -9999 -9999 -9999 -9999 -9999 -9999 -9999 -9999 -9999 -9999 -9999 -9999 -9999 -9999 -9999 -9999 -9999 -9999 -9999 -9999 -9999 -9999 -9999 -9999 -9999 -9999 -9999 -9999 -9999 -9999 -9999 -9999 -9999 -9999 -9999 -9999 -9999 -9999 -9999 -9999 -9999 -9999 -9999 -9999 -9999 -9999 -9999 -9999 -9999 -9999 -9999 -9999 -9999 -9999 -9999 -9999 -9999 -9999 -9999 -9999 -9999
-9999 -9999 -9999 -9999 -9999 -9999 -9999 -9999 -9999 -9999 -9999 -9999 -9999 1083 970 869 867 867 756 718 746 797 797 843 900 947 998 998 896 949 771 797 797 826 811 836 836 766 716 637 688 688 652 607 558 537 537 537 517 492 504 573 563 523 473 473 473 479 472 443 467 467 475 479 492 508 508 490 442 425 425 431 432 474 441 441 457 447 433 420 420 437 423 437 420 420 420 445 518 549 549 551 508 567 574 574 638 714 694 633 633 702 807 955 902 -9999 -9999 -9999 -9999 -9999 -9999 -9999 -9999 -9999 -9999 -9999 -9999 -9999 -9999 -9999 -9999 -9999 -9999 -9999 -9999 -9999 -9999 -9999 -9999 -9999 -9999 -9999 -9999 -9999 -9999 -9999 -9999 -9999 -9999 -9999 -9999 -9999 -9999 -9999 -9999 -9999 -9999 -9999 -9999 -9999 -9999 -9999 -9999 -9999 -9999 -9999 -9999 -9999 -9999 -9999 -9999 974 887 887 881 963 1003 989 925 935 978 956 956 937 891 912 937 937 878 945 978 883 883 775 682 599 561 561 528 631 630 656 656 614 498 463 469 469 497 506 455 426 426 479 477 471 471 519 420 420 420 420 459 449 474 500 500 485 499 485 473 473 499 458 468 499 499 465 453 496 522 522 527 567 532 566 566 582 513 500 500 531 532 515 466 466 506 505 494 449 449 445 432 407 387 387 387 387 387 398 398 425 437 449 431 431 372 393 429 383 383 355 411 374 374 358 355 438 391 391 408 428 480 437 437 416 453 431 386 386 372 401 422 361 361 355 355 374 413 413 423 439 422 428 428 449 455 450 450 435 421 452 511 462 461 498 490 531 531 619 -9999 -9999 -9999 -9999 -9999 -9999 -9999 -9999 -9999 -9999 -9999 -9999 -9999 -9999 -9999 -9999 -9999 -9999 -9999 -9999 -9999 -9999 -9999 -9999 -9999 -9999 -9999 -9999 -9999 -9999 -9999 -9999 -9999 -9999 -9999 -9999 -9999 -9999 -9999 -9999 -9999 -9999 -9999 -9999 -9999 -9999 -9999 -9999 -9999 -9999 -9999 -9999 -9999 -9999 -9999 -9999 -9999 -9999 -9999 -9999 -9999 -9999 -9999 -9999 -9999 -9999 -9999 -9999 -9999 -9999 -9999 -9999 -9999 -9999 -9999 -9999 -9999 -9999 -9999 -9999 -9999 -9999 -9999 -9999 -9999 -9999 -9999 -9999 -9999 -9999 -9999 -9999 -9999 -9999 -9999 -9999 -9999 -9999 -9999 -9999 -9999 -9999 -9999 -9999 -9999 -9999 -9999 -9999 -9999 -9999 -9999 -9999 -9999 -9999 -9999 -9999 -9999 -9999 -9999 -9999 -9999 -9999 -9999 -9999 -9999 -9999 -9999 -9999 -9999 -9999 -9999 -9999 -9999 -9999 -9999 -9999 -9999
-9999 -9999 -9999 -9999 -9999 -9999 -9999 -9999 -9999 -9999 -9999 1164 1077 1077 989 922 813 813 756 786 771 881 881 952 994 1037 1032 1032 896 949 868 899 899 891 823 777 711 711 667 637 637 671 671 574 575 515 489 489 480 480 504 504 504 473 473 476 476 443 443 443 452 467 472 475 463 466 466 479 443 432 463 431 432 449 459 444 444 432 427 462 477 477 423 427 420 420 420 459 542 480 480 457 534 567 609 609 655 697 709 711 711 792 892 955 1015 -9999 -9999 -9999 -9999 -9999 -9999 -9999 -9999 -9999 -9999 -9999 -9999 -9999 -9999 -9999 -9999 -9999 -9999 -9999 -9999 -9999 -9999 -9999 -9999 -9999 -9999 -9999 -9999 -9999 -9999 -9999 -9999 -9999 -9999 -9999 -9999 -9999 -9999 -9999 -9999 -9999 -9999 -9999 -9999 -9999 -9999 -9999 -9999 -9999 -9999 -9999 -9999 -9999 -9999 -9999 -9999 1036 927 927 981 971 1033 989 989 977 984 938 904 904 907 928 978 958 958 1001 973 891 749 749 663 681 587 518 528 526 593 587 587 507 480 470 460 460 497 448 424 420 420 420 470 458 461 461 420 420 420 420 420 462 484 528 502 502 504 485 477 473 473 437 496 510 510 508 452 496 492 492 517 525 517 567 567 556 512 459 515 515 491 528 491 502 502 535 478 459 450 450 465 439 451 430 430 387 419 439 398 425 470 444 406 406 363 389 393 355 355 355 376 355 355 355 355 405 376 413 413 428 405 393 423 423 423 401 421 422 422 401 422 402 402 380 355 355 397 397 471 543 422 422 422 422 429 426 426 426 460 463 511 507 507 461 545 558 623 623 750 -9999 -9999 -9999 -9999 -9999 -9999 -9999 -9999 -9999 -9999 -9999 -9999 -9999 -9999 -9999 -9999 -9999 -9999 -9999 -9999 -9999 -9999 -9999 -9999 -9999 -9999 -9999 -9999 -9999 -9999 -9999 -9999 -9999 -9999 -9999 -9999 -9999 -9999 -9999 -9999 -9999 -9999 -9999 -9999 -9999 -9999 -9999 -9999 -9999 -9999 -9999 -9999 -9999 -9999 -9999 -9999 -9999 -9999 -9999 -9999 -9999 -9999 -9999 -9999 -9999 -9999 -9999 -9999 -9999 -9999 -9999 -9999 -9999 -9999 -9999 -9999 -9999 -9999 -9999 -9999 -9999 -9999 -9999 -9999 -9999 -9999 -9999 -9999 -9999 -9999 -9999 -9999 -9999 -9999 -9999 -9999 -9999 -9999 -9999 -9999 -9999 -9999 -9999 -9999 -9999 -9999 -9999 -9999 -9999 -9999 -9999 -9999 -9999 -9999 -9999 -9999 -9999 -9999 -9999 -9999 -9999 -9999 -9999 -9999 -9999 -9999 -9999 -9999 -9999 -9999 -9999 -9999 -9999 -9999 -9999 -9999
